ply
format ascii 1.0
element vertex 1242
property float x
property float y
property float z
property uchar red
property uchar green
property uchar blue
end_header
18.3664 100.864 -66.2845  255 255 255
14.3496 112.2 -52.6226  255 255 255
-6.71528 -7.30408 38.4896  255 255 255
-6.23513 -3.82058 36.8261  255 255 255
19.7537 100.849 -67.4107  255 255 255
-6.41696 -13.0011 39.5548  255 255 255
-6.77924 -28.9675 42.7785  255 255 255
15.8939 112.399 -52.7892  255 255 255
18.0824 128.127 -61.142  255 255 255
18.8102 135.555 -64.5462  255 255 255
20.6861 102.372 -67.3684  255 255 255
-5.56562 -7.06571 38.491  255 255 255
20.7588 104.802 -65.244  255 255 255
-5.63033 -10.7286 39.3265  255 255 255
21.1579 105.309 -64.6944  255 255 255
20.2123 131.569 -64.3243  255 255 255
-4.84639 -3.71823 37.0287  255 255 255
17.8368 113.594 -53.1589  255 255 255
17.8367 113.594 -53.1585  255 255 255
21.949 151.5 -66.3055  255 255 255
19.7143 114.133 -55.2049  255 255 255
21.6522 129.509 -63.1686  255 255 255
34.8413 68.9662 -101.92  255 255 255
-2.51179 -59.9053 38.9093  255 255 255
22.3078 117.861 -58.7132  255 255 255
23.7379 128.055 -63.8696  255 255 255
23.7378 128.055 -63.8694  255 255 255
23.4049 124.366 -61.9543  255 255 255
23.4048 124.366 -61.954  255 255 255
36.7557 70.4944 -101.143  255 255 255
24.7901 130.774 -65.2713  255 255 255
23.0477 118.862 -58.3011  255 255 255
25.3499 131.409 -65.4431  255 255 255
-4.13694 -29.8992 44.0498  255 255 255
-3.14482 -28.7302 41.9569  255 255 255
27.9692 106.245 -68.6673  255 255 255
26.2285 126.161 -63.2553  255 255 255
-1.87369 -22.6883 40.7395  255 255 255
-1.87369 -22.6883 40.7395  255 255 255
32.3615 23.8793 -67.7444  255 255 255
29.9377 122.366 -62.81  255 255 255
33.6234 24.4338 -68.3568  255 255 255
34.9004 105.147 -74.3838  255 255 255
-0.357983 -13.7354 39.6572  255 255 255
44.7249 88.4397 -93.719  255 255 255
37.9491 111.98 -73.9305  255 255 255
0.268515 -30.6164 43.5555  255 255 255
46.7801 100.422 -86.6323  255 255 255
46.5865 103.078 -82.2623  255 255 255
47.8759 100.807 -85.352  255 255 255
-89.6059 4.87038 103.387  255 255 255
-137.23 -0.973587 -36.9965  255 255 255
-223.301 167.169 -240.713  255 255 255
-207.691 87.7707 -214.563  255 255 255
-207.868 140.499 -217.607  255 255 255
-170.387 134.02 -125.439  255 255 255
-177.317 156.62 -140.526  255 255 255
-182.715 119.125 -181.866  255 255 255
-165.552 130.118 -117.332  255 255 255
-182.249 136.195 -173.993  255 255 255
-175.748 146.354 -149.816  255 255 255
-176.881 111.765 -177.756  255 255 255
-159.03 127.402 -110.309  255 255 255
-143.142 83.1508 -107.491  255 255 255
-140.013 85.7673 -100.802  255 255 255
-131.485 104.479 -69.3823  255 255 255
-132.741 116.731 -64.9945  255 255 255
-131.665 100.017 -72.6299  255 255 255
-130.145 97.2872 -68.144  255 255 255
-132.306 96.4556 -78.3325  255 255 255
-131.183 114.84 -65.4094  255 255 255
-125.576 87.4473 -67.2508  255 255 255
-163.606 186.671 -141.564  255 255 255
-125.15 108.494 -57.0563  255 255 255
-123.131 89.2474 -62.8693  255 255 255
-136.277 134.392 -79.296  255 255 255
-111.969 72.5281 -50.2858  255 255 255
-113.069 77.4131 -50.6103  255 255 255
-113.069 77.4131 -50.6102  255 255 255
-109.161 76.6145 -41.9307  255 255 255
-138.084 169.944 -104.414  255 255 255
-95.0432 75.5538 -13.2125  255 255 255
-77.781 -19.9637 -14.6628  255 255 255
-100.218 96.8479 -25.3607  255 255 255
-76.3498 -21.0581 -12.2857  255 255 255
-92.0124 29.3541 -47.3382  255 255 255
-90.6494 38.244 -40.7666  255 255 255
-111.863 133.212 -65.1299  255 255 255
-111.744 134.688 -64.0459  255 255 255
-90.1157 38.3877 -41.1589  255 255 255
-110.562 135.801 -62.357  255 255 255
-89.6782 61.2558 -23.7559  255 255 255
-109.888 130.982 -66.6794  255 255 255
-89.1158 57.9653 -27.022  255 255 255
-108.854 133.675 -64.9784  255 255 255
-107.704 135.376 -61.6314  255 255 255
-107.755 132.192 -66.3219  255 255 255
-107.729 132.144 -66.1833  255 255 255
-107.62 133.404 -65.4507  255 255 255
-107.67 133.678 -65.866  255 255 255
-105.928 135.147 -67.5291  255 255 255
-86.1731 49.425 -36.0912  255 255 255
-85.3412 44.9245 -38.6165  255 255 255
-104.96 135.652 -65.3876  255 255 255
-84.6398 28.2329 -52.8106  255 255 255
-77.355 -0.0675234 -38.288  255 255 255
-85.2705 58.7082 -29.2944  255 255 255
-84.564 30.7882 -52.177  255 255 255
-88.2119 90.0621 -19.0148  255 255 255
-84.2001 40.6551 -44.5957  255 255 255
-103.383 136.507 -66.1028  255 255 255
-83.2593 38.8693 -46.4768  255 255 255
-56.6825 -47.9329 24.0534  255 255 255
-82.3858 40.9647 -45.2065  255 255 255
-82.0912 75.8749 -17.4068  255 255 255
-81.6619 75.8401 -16.5057  255 255 255
-81.2803 64.288 -26.7581  255 255 255
-84.0184 106.564 -27.8263  255 255 255
-50.8986 -52.5165 29.2208  255 255 255
-75.1364 74.787 -23.958  255 255 255
-52.5131 -44.282 18.2584  255 255 255
-93.9883 168.537 -88.0925  255 255 255
-73.6058 77.9482 -20.5594  255 255 255
-57.4369 -18.2181 -15.8235  255 255 255
-56.6106 -20.0357 -13.4069  255 255 255
-67.7875 61.1406 -39.4419  255 255 255
-73.8829 121.335 -31.5842  255 255 255
-56.0495 -5.94314 -29.9207  255 255 255
-66.9826 78.2558 -26.1044  255 255 255
-54.1005 -7.44985 -28.9687  255 255 255
-41.2267 -63.9401 43.3517  255 255 255
-43.7848 -50.8764 27.0665  255 255 255
-52.7868 -8.38298 -26.4867  255 255 255
-61.4874 47.582 -52.3261  255 255 255
-60.5093 47.776 -53.3247  255 255 255
-41.545 -56.3212 34.5447  255 255 255
-61.9763 82.6515 -26.6663  255 255 255
-59.6167 64.8838 -42.0441  255 255 255
-57.7989 46.125 -56.9879  255 255 255
-50.5559 29.2614 -73.5568  255 255 255
-49.9902 49.8528 -59.2227  255 255 255
-58.7633 126.808 -139.625  255 255 255
-48.7227 45.6869 -61.2748  255 255 255
-34.1446 -64.2736 44.7682  255 255 255
-50.3996 83.1286 -33.09  255 255 255
-45.9828 72.4135 -45.1748  255 255 255
-41.6731 52.7381 -63.2385  255 255 255
-46.1442 99.6631 -35.6185  255 255 255
-40.813 53.9985 -61.9482  255 255 255
-41.9291 70.1171 -49.0358  255 255 255
-30.3127 -64.0118 44.3699  255 255 255
-30.3127 -64.0118 44.3699  255 255 255
-30.1472 -64.6673 44.4949  255 255 255
-29.7606 -59.8803 38.5097  255 255 255
-40.7207 87.9217 -36.2514  255 255 255
-29.4909 -56.7358 34.9261  255 255 255
-29.3479 -59.2176 38.1379  255 255 255
-30.8415 -28.1551 21.1753  255 255 255
-33.6959 55.212 -66.7611  255 255 255
-27.8218 -64.9364 45.3842  255 255 255
-27.7748 -66.9224 47.7287  255 255 255
-30.9683 -17.7842 26.9822  255 255 255
-29.828 55.0743 -68.8795  255 255 255
-29.9464 54.7894 -67.7395  255 255 255
-29.9556 -15.9706 27.2493  255 255 255
-26.5009 -60.3969 39.7371  255 255 255
-28.6561 -5.90714 13.24  255 255 255
-28.6785 -5.03926 12.0206  255 255 255
-25.9034 -57.8974 36.5201  255 255 255
-25.9446 -67.2994 48.7159  255 255 255
-25.8876 -67.6557 48.0741  255 255 255
-25.7967 -59.4491 38.4741  255 255 255
-28.6325 -22.1749 34.1709  255 255 255
-26.6478 61.9577 -65.1456  255 255 255
-25.6982 57.7594 -69.6368  255 255 255
-25.0066 -57.1593 35.589  255 255 255
-24.3163 -65.6062 46.6888  255 255 255
-24.0546 -61.3829 40.6103  255 255 255
-23.5937 -58.6102 37.6736  255 255 255
-25.4292 -4.82424 17.555  255 255 255
-24.1274 -34.2861 28.5525  255 255 255
-15.4845 59.6948 -74.9471  255 255 255
-16.2946 63.9031 -69.119  255 255 255
-21.8214 93.9146 -41.9699  255 255 255
-22.9851 112.838 -40.7559  255 255 255
-20.0087 -61.6685 41.3346  255 255 255
-19.6444 -61.2863 40.7578  255 255 255
-8.3239 41.8827 -90.9551  255 255 255
-19.6132 -65.6817 44.3678  255 255 255
-19.2463 -61.6147 41.1838  255 255 255
-19.4994 -63.9137 44.3215  255 255 255
-18.6939 -60.6231 40.077  255 255 255
-18.8655 -63.5629 43.9381  255 255 255
-18.3637 -63.3746 43.8249  255 255 255
-15.6761 126.292 -50.6066  255 255 255
-15.3833 138.573 -56.5474  255 255 255
-18.8741 0.784388 23.3971  255 255 255
-14.7414 125.726 -51.9468  255 255 255
-5.50773 57.5568 -81.7739  255 255 255
-19.0424 -13.3538 33.0272  255 255 255
-13.893 121.463 -49.5758  255 255 255
-13.5376 134.083 -55.7751  255 255 255
-13.4414 139.645 -58.0047  255 255 255
-11.7926 143.533 -60.44  255 255 255
-16.3713 -61.4055 41.0355  255 255 255
-11.4482 128.889 -53.3741  255 255 255
-11.4482 128.889 -53.3742  255 255 255
-16.207 -60.9241 41.0044  255 255 255
-8.99667 92.6319 -54.5138  255 255 255
-8.12399 87.9143 -56.808  255 255 255
-8.15801 87.8613 -56.8034  255 255 255
-11.0872 119.57 -49.4412  255 255 255
-10.9337 121.93 -50.7719  255 255 255
-17.0823 1.2278 25.8217  255 255 255
-10.4476 128.43 -54.8115  255 255 255
-10.4777 127.826 -54.0151  255 255 255
-17.3292 -19.1783 36.4143  255 255 255
-15.7696 2.91914 24.5431  255 255 255
-15.6691 2.9689 24.1048  255 255 255
-8.48832 134.275 -54.8389  255 255 255
-7.94331 125.757 -53.3728  255 255 255
-7.09782 139.002 -59.5008  255 255 255
-4.62818 91.5567 -57.3947  255 255 255
-7.99174 113.446 -46.4098  255 255 255
0.52847 19.6513 -63.6183  255 255 255
-3.36048 85.3595 -61.3518  255 255 255
-15.7664 -23.916 37.5517  255 255 255
-15.2694 -32.433 37.8072  255 255 255
-6.34494 124.922 -52.1074  255 255 255
-6.34491 124.922 -52.1076  255 255 255
-4.64808 127.055 -56.5114  255 255 255
-5.07008 118.126 -50.8688  255 255 255
-5.07006 118.126 -50.8689  255 255 255
-4.53071 132.112 -57.6372  255 255 255
-14.051 -35.7457 35.8758  255 255 255
-4.77783 113.08 -48.6004  255 255 255
-4.75576 113.27 -48.8976  255 255 255
-4.02185 138.158 -59.5222  255 255 255
-4.98672 107.389 -44.5523  255 255 255
-3.48213 130.156 -57.1877  255 255 255
-14.557 -16.648 35.9412  255 255 255
-14.6778 -20.1617 37.938  255 255 255
-2.82259 101.406 -50.4773  255 255 255
2.46779 80.1037 -70.5105  255 255 255
-3.18522 108.01 -45.5859  255 255 255
-2.42613 115.039 -50.6585  255 255 255
-0.499651 95.9779 -54.8933  255 255 255
-1.42136 140.668 -60.9287  255 255 255
-12.1955 4.6692 25.3768  255 255 255
2.31031 97.6399 -57.7345  255 255 255
6.8715 82.3879 -74.068  255 255 255
10.2983 68.072 -85.659  255 255 255
-12.2355 -1.17221 32.2582  255 255 255
-10.0725 5.12072 24.6289  255 255 255
4.95957 98.4949 -58.935  255 255 255
2.21095 116.485 -50.7474  255 255 255
14.8256 61.4839 -90.448  255 255 255
-10.1753 0.153434 32.1012  255 255 255
-10.3547 -8.02159 37.6385  255 255 255
-9.97855 -8.21511 37.3699  255 255 255
6.16417 130.268 -50.1416  255 255 255
12.553 91.0029 -69.7361  255 255 255
18.2511 67.6079 -86.4333  255 255 255
12.6037 100.409 -63.1914  255 255 255
11.651 122.288 -56.6799  255 255 255
11.638 122.253 -56.6294  255 255 255
13.0171 107.411 -56.5472  255 255 255
14.7824 102.474 -62.1449  255 255 255
12.7922 115.493 -54.9871  255 255 255
12.7205 115.21 -54.4891  255 255 255
14.7353 137.337 -60.2816  255 255 255
-7.01779 -18.0993 39.2206  255 255 255
22.5713 85.8135 -79.9374  255 255 255
22.4328 85.6739 -79.5309  255 255 255
-6.8973 -11.817 39.9781  255 255 255
20.3073 98.8786 -68.9722  255 255 255
17.72 128.64 -62.6992  255 255 255
-5.96214 -4.94769 37.3952  255 255 255
17.5969 113.112 -53.5903  255 255 255
27.6876 81.3867 -86.4965  255 255 255
23.0036 102.782 -67.9323  255 255 255
33.0972 68.8284 -99.0442  255 255 255
30.2893 79.7948 -88.9356  255 255 255
24.4354 103.103 -68.2493  255 255 255
22.9308 130.221 -64.7078  255 255 255
22.8836 130.068 -64.444  255 255 255
24.596 104.577 -67.1278  255 255 255
33.3616 75.6225 -94.5785  255 255 255
24.7995 135.195 -66.9844  255 255 255
25.8641 104.901 -67.8252  255 255 255
24.577 123.975 -62.1818  255 255 255
36.5216 42.6022 -92.0611  255 255 255
30.6569 102.326 -73.9791  255 255 255
26.7906 126.211 -62.5629  255 255 255
26.7887 126.208 -62.557  255 255 255
26.8159 116.837 -59.4742  255 255 255
0.144478 -34.6145 40.2962  255 255 255
3.01797 -43.5612 33.6176  255 255 255
0.7611 -11.7142 39.7908  255 255 255
43.2374 97.2705 -86.8821  255 255 255
0.228828 -30.147 43.7248  255 255 255
42.3488 104.991 -79.964  255 255 255
42.3489 104.991 -79.964  255 255 255
39.7194 111.97 -70.7146  255 255 255
58.715 67.863 -115.715  255 255 255
-94.2277 10.2194 102.027  255 255 255
-190.826 121.161 -191.556  255 255 255
-176.538 137.834 -154.582  255 255 255
-152.297 113.816 -104.331  255 255 255
-140.849 129.139 -79.4045  255 255 255
-145.342 137.584 -88.4898  255 255 255
-141.409 137.024 -84.2997  255 255 255
-128.011 103.807 -61.8812  255 255 255
-139.365 134.77 -82.902  255 255 255
-164.43 186.297 -145.247  255 255 255
-118.444 79.3709 -60.2352  255 255 255
-102.872 69.9144 -31.2426  255 255 255
-81.2564 -15.1514 -20.2168  255 255 255
-95.0136 55.6665 -29.4746  255 255 255
-93.6403 73.7606 -11.7152  255 255 255
-117.522 138.808 -69.2597  255 255 255
-89.7279 70.2304 -17.0548  255 255 255
-88.4705 52.1409 -32.3025  255 255 255
-88.1406 46.3045 -35.8851  255 255 255
-107.196 135.52 -65.1734  255 255 255
-106.205 139.558 -61.0307  255 255 255
-86.5592 64.555 -22.796  255 255 255
-86.7696 64.879 -23.8373  255 255 255
-85.977 47.1869 -37.7559  255 255 255
-86.1695 73.3684 -16.3394  255 255 255
-104.033 137.354 -62.7177  255 255 255
-84.8552 39.0979 -45.2892  255 255 255
-84.743 43.7227 -40.4827  255 255 255
-90.3285 96.3795 -24.5424  255 255 255
-83.5512 31.5244 -51.6861  255 255 255
-83.1474 74.4404 -17.8648  255 255 255
-81.8685 61.2039 -30.0446  255 255 255
-84.4597 104.446 -26.5856  255 255 255
-76.674 41.3603 -48.1874  255 255 255
-83.4871 108.643 -28.8724  255 255 255
-72.6516 76.2153 -23.0127  255 255 255
-69.9397 79.106 -21.5986  255 255 255
-44.4989 -53.919 29.3439  255 255 255
-92.6306 220.901 -143.379  255 255 255
-64.8666 70.3638 -34.7696  255 255 255
-64.843 70.0918 -34.202  255 255 255
-54.0028 -4.03046 -32.8608  255 255 255
-43.6776 -50.0225 26.0954  255 255 255
-52.3703 -3.40809 -32.5955  255 255 255
-61.577 76.6326 -31.0223  255 255 255
-56.0654 31.8782 -66.9133  255 255 255
-46.6628 -14.4595 -18.7781  255 255 255
-58.5353 82.7631 -26.6969  255 255 255
-37.9085 -64.1736 45.0534  255 255 255
-47.1998 -9.05887 -26.4319  255 255 255
-38.7689 -53.3166 30.8138  255 255 255
-55.5605 83.4727 -27.6858  255 255 255
-37.5749 -55.9615 33.8483  255 255 255
-36.2734 -62.1322 41.8971  255 255 255
-36.2807 -62.0884 41.9641  255 255 255
-53.6586 83.3361 -29.7627  255 255 255
-45.1748 17.7157 -59.924  255 255 255
-48.7254 72.3797 -45.6596  255 255 255
-32.48 -64.6707 45.649  255 255 255
-46.5811 104.507 -31.3311  255 255 255
-41.7885 87.4795 -35.2035  255 255 255
-30.3312 -58.0613 36.8876  255 255 255
-41.2737 250.459 -175.429  255 255 255
-26.5818 -67.3429 47.9745  255 255 255
-26.2863 -57.5884 36.1112  255 255 255
-25.8885 -1.44569 7.44576  255 255 255
-23.5237 72.8461 -59.6295  255 255 255
-25.658 92.1646 -42.0696  255 255 255
-23.2377 -2.02478 14.1126  255 255 255
-21.6009 -59.6169 38.542  255 255 255
-22.0369 -67.7955 49.3775  255 255 255
-15.0933 18.8212 -60.8289  255 255 255
-21.6229 2.0689 3.54789  255 255 255
-19.807 -64.1239 44.5473  255 255 255
-19.115 -60.7397 40.1966  255 255 255
-19.1091 -27.8549 39.6286  255 255 255
-6.02877 68.0796 -74.0823  255 255 255
-6.0288 68.0795 -74.0821  255 255 255
-4.70047 77.1076 -68.7071  255 255 255
4.43642 245.913 -172.644  255 255 255
-9.70812 114.831 -48.21  255 255 255
-7.0945 103.118 -46.3657  255 255 255
-15.7766 -19.8802 37.2336  255 255 255
-3.98067 133.086 -54.9061  255 255 255
-13.3162 -37.1586 35.4339  255 255 255
0.0456213 94.4056 -58.8518  255 255 255
-1.78973 135.611 -59.6437  255 255 255
-1.08079 99.8177 -53.4544  255 255 255
7.62607 30.0712 -76.1035  255 255 255
-12.4016 -62.5081 42.3863  255 255 255
-13.8326 -13.2789 36.5369  255 255 255
-13.8102 -13.2607 36.4369  255 255 255
6.27782 82.5918 -71.3507  255 255 255
-11.219 4.93844 25.0913  255 255 255
14.1982 57.8156 -94.6826  255 255 255
-10.2773 -46.8174 36.5276  255 255 255
-10.682 -62.8104 42.6159  255 255 255
-10.3851 0.94093 31.5607  255 255 255
15.4964 78.731 -80.4068  255 255 255
-9.71833 -17.8305 39.8201  255 255 255
-9.20456 -1.98212 35.7914  255 255 255
10.7432 103.559 -58.6998  255 255 255
13.3733 99.8852 -64.0597  255 255 255
-8.66534 -11.5812 39.5945  255 255 255
18.5318 97.2316 -69.7446  255 255 255
15.9172 106.414 -59.7704  255 255 255
-5.92604 -38.5582 37.9991  255 255 255
15.5102 137.542 -58.7774  255 255 255
16.0517 137.172 -60.1258  255 255 255
24.9586 85.068 -81.3188  255 255 255
25.1224 85.2846 -81.8483  255 255 255
24.9529 85.0612 -81.3001  255 255 255
-5.59439 -6.24429 37.6175  255 255 255
27.9003 81.5941 -87.1928  255 255 255
21.8726 103.968 -66.4927  255 255 255
28.5232 85.387 -84.533  255 255 255
33.4857 82.3931 -89.4454  255 255 255
27.2885 101.034 -69.7711  255 255 255
35.71 40.9963 -89.9857  255 255 255
-2.77703 -7.71534 39.2766  255 255 255
29.0691 104.792 -70.4359  255 255 255
-2.29676 -11.7726 39.2326  255 255 255
2.37885 2.24297 24.7685  255 255 255
30.5121 99.4108 -68.5339  255 255 255
-1.66676 -28.7485 42.6341  255 255 255
29.6389 111.92 -61.7744  255 255 255
39.567 93.1889 -86.6701  255 255 255
2.76175 -43.9155 33.3849  255 255 255
43.8653 83.3898 -95.1754  255 255 255
40.7748 98.4355 -84.8362  255 255 255
44.6311 86.9196 -95.0315  255 255 255
36.9053 112.722 -66.4306  255 255 255
39.8141 110.907 -71.7837  255 255 255
-95.9054 -39.5456 12.4016  255 255 255
-300.988 246.117 -397.751  255 255 255
-289.315 229.339 -390.302  255 255 255
-128.047 29.8774 -80.1945  255 255 255
-145.202 95.0943 -103.066  255 255 255
-142.997 127.063 -78.7032  255 255 255
-140.682 89.7657 -98.5297  255 255 255
-140.682 89.7655 -98.5294  255 255 255
-136.22 100.364 -82.2603  255 255 255
-134.349 88.7674 -85.2029  255 255 255
-131.208 108.304 -64.2936  255 255 255
-111.253 73.7736 -48.1944  255 255 255
-90.2141 57.388 -27.6669  255 255 255
-89.9263 84.5819 -17.2107  255 255 255
-85.8474 74.7383 -16.5385  255 255 255
-83.0443 44.5256 -41.9224  255 255 255
-86.323 97.7997 -24.0019  255 255 255
-86.3231 97.7998 -24.002  255 255 255
-85.6394 100.709 -25.5131  255 255 255
-77.8463 39.8747 -48.3618  255 255 255
-79.1295 60.9583 -34.8751  255 255 255
-74.9359 40.8782 -49.6682  255 255 255
-82.1125 112.654 -30.7661  255 255 255
-85.0944 169.25 -86.4904  255 255 255
-65.3592 71.0467 -32.7923  255 255 255
-58.1612 65.0534 -42.5002  255 255 255
-53.7848 84.9433 -30.3523  255 255 255
-31.5156 -63.7869 44.0243  255 255 255
-30.6086 -65.387 46.1241  255 255 255
-30.1374 -64.4147 44.8443  255 255 255
-30.4196 -59.8947 38.686  255 255 255
-30.5152 -59.3608 39.9313  255 255 255
-39.4457 85.2831 -37.846  255 255 255
-28.5312 -59.329 37.9784  255 255 255
-30.689 -26.6448 21.2022  255 255 255
-41.7783 177.734 -99.8631  255 255 255
-26.8577 -59.8515 35.8453  255 255 255
-23.9498 -62.0607 41.9506  255 255 255
-21.2446 -63.0063 41.8457  255 255 255
-12.2409 41.0957 -87.8202  255 255 255
-19.4768 -68.992 51.0827  255 255 255
-20.4741 -26.6932 38.5162  255 255 255
-14.0595 93.6288 -49.2093  255 255 255
-18.5618 -28.2729 40.8069  255 255 255
-10.9475 116.173 -50.7365  255 255 255
-16.706 -25.9589 39.2507  255 255 255
-5.84495 92.5469 -54.4556  255 255 255
-5.84475 92.5471 -54.4563  255 255 255
-16.1226 -20.6026 38.2829  255 255 255
-1.00554 95.7053 -58.048  255 255 255
-12.3388 3.74448 26.6814  255 255 255
-10.7668 -21.8517 39.6954  255 255 255
-7.81055 4.94161 24.6497  255 255 255
6.98719 129.957 -52.7223  255 255 255
-7.08556 -2.76904 35.3941  255 255 255
-7.2023 -2.78678 35.6123  255 255 255
25.7638 69.4453 -93.1283  255 255 255
27.325 69.1152 -96.4773  255 255 255
28.9114 70.407 -94.1899  255 255 255
-5.95642 -29.1321 43.1384  255 255 255
-4.48096 -2.95725 36.5571  255 255 255
39.42 73.0385 -103.405  255 255 255
-2.79543 -32.4847 41.8479  255 255 255
-1.73978 -7.1487 38.8546  255 255 255
1.9775 -22.1913 40.2248  255 255 255
-95.2644 -38.225 12.7312  255 255 255
-181.063 120.143 -160.302  255 255 255
-204.818 136.553 -204.155  255 255 255
-182.096 117.912 -173.04  255 255 255
-115.425 85.3771 -49.2986  255 255 255
-115.639 64.0658 -66.0147  255 255 255
-145.297 188.099 -118.117  255 255 255
-93.8043 40.0582 -46.3344  255 255 255
-114.125 136.263 -62.775  255 255 255
-85.8548 25.9985 -54.4092  255 255 255
-104.746 135.744 -62.1344  255 255 255
-86.9473 95.2992 -22.5767  255 255 255
-87.6008 161.719 -81.8907  255 255 255
-59.8761 34.9121 -64.2278  255 255 255
-34.3365 -62.6438 42.509  255 255 255
-33.3949 -59.0564 38.0364  255 255 255
-29.9176 -26.0643 24.1343  255 255 255
-25.8303 -67.3278 45.9964  255 255 255
-22.7768 -61.194 40.6314  255 255 255
-22.7259 -60.0108 39.3467  255 255 255
-20.4968 -23.0125 35.9653  255 255 255
-6.05727 81.0722 -63.7567  255 255 255
3.61711 24.0159 -67.731  255 255 255
4.36323 28.8597 -74.181  255 255 255
3.43069 22.0075 -64.3118  255 255 255
-2.07797 114.042 -49.2467  255 255 255
-0.352461 100.937 -52.1548  255 255 255
-10.7887 -61.8173 41.427  255 255 255
1.67286 131.831 -54.2032  255 255 255
-10.1777 -19.9375 37.6197  255 255 255
20.7189 78.2327 -85.6063  255 255 255
-7.56044 -36.3186 39.4675  255 255 255
22.982 150.443 -66.7222  255 255 255
-4.07287 -31.6764 42.8254  255 255 255
23.9923 122.84 -61.6161  255 255 255
-1.33761 -39.2641 36.7732  255 255 255
27.0635 117.752 -59.8427  255 255 255
34.1989 140.655 -72.9503  255 255 255
-170.317 109.42 -142.494  255 255 255
-161.336 142.745 -98.1587  255 255 255
-167.817 131.749 -128.546  255 255 255
-149.172 134.125 -86.1331  255 255 255
-129.526 74.2358 -86.8927  255 255 255
-127.611 59.5371 -93.6342  255 255 255
-128.944 65.0503 -94.525  255 255 255
-103.601 52.0148 -50.4323  255 255 255
-102.449 73.8173 -28.4433  255 255 255
-125.918 143.493 -81.1067  255 255 255
-88.868 38.9515 -40.5206  255 255 255
-85.5552 39.9249 -44.0741  255 255 255
-59.0898 -44.4999 18.5699  255 255 255
-82.7196 34.4084 -49.3008  255 255 255
-111.332 170.512 -91.274  255 255 255
-48.3094 -59.8767 39.9832  255 255 255
-42.5268 -53.0541 29.0522  255 255 255
-62.4016 80.0701 -24.9971  255 255 255
-72.2494 173.624 -93.1155  255 255 255
-28.6478 -36.4951 23.4151  255 255 255
-26.9051 -65.5466 45.7417  255 255 255
-26.3322 -67.1302 46.4789  255 255 255
-26.3322 -67.1303 46.4788  255 255 255
-26.1416 -65.4902 48.0935  255 255 255
-28.0081 -21.8897 34.2685  255 255 255
-28.6894 118.055 -47.3437  255 255 255
-22.4947 -65.2393 45.875  255 255 255
-18.7345 -31.795 39.0668  255 255 255
-13.4293 132.519 -51.7742  255 255 255
-3.76702 77.0523 -68.8038  255 255 255
-15.6799 -26.4145 40.1082  255 255 255
-15.3469 -27.3352 40.7397  255 255 255
-11.6424 -15.9953 37.4686  255 255 255
-11.4799 -7.4862 36.7816  255 255 255
5.58797 129.468 -55.1486  255 255 255
13.1708 87.8536 -69.9236  255 255 255
9.05537 120.4 -55.9752  255 255 255
19.2299 80.6487 -81.0758  255 255 255
10.9133 115.059 -52.9539  255 255 255
24.7286 87.3643 -80.6775  255 255 255
22.1147 112.434 -54.6958  255 255 255
41.3832 114.3 -72.6737  255 255 255
-152.866 130.681 -95.7438  255 255 255
-126.204 107.912 -53.0945  255 255 255
-120.586 62.9907 -76.3076  255 255 255
-108.65 40.2251 -67.5368  255 255 255
-71.1932 39.7832 -59.0846  255 255 255
-32.9305 91.4619 -38.0557  255 255 255
-23.8106 -61.0882 40.6791  255 255 255
-15.0646 95.1344 -48.0137  255 255 255
-13.3056 124.997 -52.3054  255 255 255
-18.1073 -20.4533 36.5447  255 255 255
-16.9871 -0.434961 27.1465  255 255 255
6.0646 105.183 -52.7335  255 255 255
-9.09448 -27.282 40.8793  255 255 255
16.5875 115.8 -53.8069  255 255 255
27.2545 83.9804 -85.2741  255 255 255
-5.12156 -8.63366 39.3805  255 255 255
41.2793 78.6901 -96.5455  255 255 255
-107.462 143.171 -56.5141  255 255 255
-107.463 143.173 -56.5173  255 255 255
-80.0803 76.8749 -17.6887  255 255 255
-57.3592 81.6705 -30.8431  255 255 255
-32.9499 -63.2619 42.7548  255 255 255
-26.9503 -35.4243 24.6314  255 255 255
-20.0091 -64.7395 44.7359  255 255 255
-9.68936 -46.6967 36.3182  255 255 255
-7.00141 -15.2552 39.7301  255 255 255
28.7018 110.898 -64.0803  255 255 255
29.878 113.761 -56.8008  255 255 255
-35.7913 -62.3608 42.2362  255 255 255
-54.5538 101.557 -23.1869  255 255 255
-33.6466 -62.0319 41.0524  255 255 255
-33.6466 -62.0318 41.0525  255 255 255
-19.1568 -63.5471 43.8276  255 255 255
-16.7092 -62.3735 42.5408  255 255 255
-4.99121 106.736 -42.1194  255 255 255
-22.781 -62.5274 42.5943  255 255 255
23.1155 108.274 -61.4617  255 255 255
-26.2597 89.1148 -47.3551  255 255 255
-13.1286 69.8801 -67.0446  255 255 255
-51.2204 98.9738 -28.8338  255 255 255
-12.5197 93.005 -51.5181  255 255 255
-6.10273 -29.3164 42.9345  255 255 255
-38.5562 95.362 -24.8892  255 255 255
-150.66 215.384 -148.272  255 255 255
-9.49874 186.916 -113.561  255 255 255
-144.786 194.679 -122.512  255 255 255
-16.1988 182.379 -109.943  255 255 255
-3.52996 161.031 -78.0317  255 255 255
-87.7406 165.916 -84.983  255 255 255
-52.3384 170.433 -95.2387  255 255 255
-52.3842 170.604 -95.5168  255 255 255
-150.254 177.093 -109.034  255 255 255
-88.9703 153.439 -75.8546  255 255 255
-145.51 174.81 -107.752  255 255 255
-160.642 178.169 -113.847  255 255 255
-106.807 139.576 -61.4538  255 255 255
-105.497 140.077 -64.8556  255 255 255
-108.325 132.813 -66.6286  255 255 255
-54.3763 116.889 -41.2838  255 255 255
-82.0835 109.515 -30.0107  255 255 255
-121.755 136.028 -77.7356  255 255 255
-85.7527 96.8386 -24.2284  255 255 255
22.7311 104.597 -66.2298  255 255 255
-22.2669 94.2986 -44.387  255 255 255
22.1574 103.328 -66.0119  255 255 255
-16.0718 96.403 -50.4742  255 255 255
-6.6926 97.8097 -55.2481  255 255 255
1.2433 97.7443 -60.143  255 255 255
38.8715 104.957 -78.4048  255 255 255
-6.63244 94.6949 -55.1335  255 255 255
25.2276 99.6681 -71.08  255 255 255
-12.5509 91.9182 -54.9956  255 255 255
17.8678 97.9639 -70.2997  255 255 255
-65.9202 79.3106 -26.1176  255 255 255
19.3027 95.4418 -72.0358  255 255 255
-13.4854 88.011 -53.9129  255 255 255
-75.4284 75.1712 -23.0814  255 255 255
-14.7655 86.7028 -53.6357  255 255 255
38.2846 97.4271 -82.3163  255 255 255
38.2846 97.4272 -82.3163  255 255 255
55.599 98.2354 -91.7767  255 255 255
23.1927 91.6608 -75.6676  255 255 255
14.2805 89.3901 -71.9253  255 255 255
26.9836 89.4793 -79.8506  255 255 255
-20.4098 81.0157 -55.8634  255 255 255
-20.4099 81.0155 -55.8628  255 255 255
37.487 88.7925 -87.3186  255 255 255
-42.8335 73.8822 -45.3633  255 255 255
5.57564 82.1276 -71.1441  255 255 255
22.7186 84.8326 -80.2681  255 255 255
-48.049 72.4013 -44.2481  255 255 255
3.66347 79.9761 -72.1616  255 255 255
2.5939 79.623 -71.5317  255 255 255
-15.1152 76.3337 -62.3354  255 255 255
-21.0739 75.4172 -60.1928  255 255 255
-32.8054 72.3515 -55.696  255 255 255
-14.7286 74.5955 -64.1438  255 255 255
54.3061 85.4533 -101.071  255 255 255
29.8675 81.0479 -88.2174  255 255 255
17.6797 78.0883 -80.8423  255 255 255
2.1643 75.8408 -75.0348  255 255 255
60.4797 82.8531 -105.668  255 255 255
-35.7445 67.8981 -57.2847  255 255 255
56.912 81.295 -104.351  255 255 255
-58.6484 62.1078 -43.2751  255 255 255
-14.3672 69.1649 -68.0226  255 255 255
-14.3671 69.165 -68.0229  255 255 255
-9.48734 68.1915 -71.1151  255 255 255
-31.0043 64.8043 -61.8407  255 255 255
-43.2945 62.2411 -53.6519  255 255 255
-43.2854 62.2171 -53.5982  255 255 255
-53.4316 60.3764 -47.869  255 255 255
19.5046 70.9622 -88.0508  255 255 255
4.40203 68.7681 -79.9828  255 255 255
-25.1276 64.5697 -65.4349  255 255 255
4.03817 68.3499 -80.339  255 255 255
-30.3749 63.1307 -64.0292  255 255 255
3.07102 67.7681 -81.2825  255 255 255
-13.3369 64.9863 -71.9129  255 255 255
43.6179 72.8385 -102.701  255 255 255
5.92931 66.6633 -81.502  255 255 255
-42.4729 59.6777 -55.7403  255 255 255
-57.8113 57.4799 -47.8261  255 255 255
-28.0127 61.3598 -64.7442  255 255 255
-14.4143 63.3519 -72.531  255 255 255
57.2777 72.7938 -110.574  255 255 255
-14.7995 62.6768 -72.106  255 255 255
-14.8316 62.6397 -72.0266  255 255 255
-28.4747 59.5329 -65.7884  255 255 255
-42.9311 57.6309 -58.9148  255 255 255
-20.9043 60.2108 -71.0965  255 255 255
-69.5937 52.7182 -44.0763  255 255 255
-10.3721 60.8194 -77.0712  255 255 255
-24.1892 58.6977 -69.0408  255 255 255
-24.3468 58.445 -68.0039  255 255 255
-20.1276 58.6377 -71.3119  255 255 255
-70.7128 51.2172 -43.7316  255 255 255
-70.7128 51.217 -43.7312  255 255 255
-30.3676 56.8325 -67.0171  255 255 255
-32.9427 56.031 -65.4649  255 255 255
-25.9881 56.8655 -69.9095  255 255 255
-28.3564 56.39 -68.8796  255 255 255
-3.60845 59.5734 -82.1853  255 255 255
-54.2022 52.6963 -54.9923  255 255 255
-70.1984 50.2877 -46.0394  255 255 255
-24.3003 56.3555 -71.2219  255 255 255
16.6719 61.3063 -93.4159  255 255 255
-47.7098 53.2475 -59.5845  255 255 255
-69.0045 49.6472 -46.8231  255 255 255
-48.7473 52.1311 -59.2091  255 255 255
-17.1477 53.0253 -69.9892  255 255 255
-2.53201 54.0954 -85.6449  255 255 255
-36.2809 49.3202 -67.0834  255 255 255
-83.8027 43.5502 -41.3855  255 255 255
-83.4887 43.692 -42.4438  255 255 255
14.2979 54.8155 -96.5492  255 255 255
-11.836 51.7613 -83.5819  255 255 255
13.4733 53.0928 -98.08  255 255 255
-63.9586 44.0989 -55.1987  255 255 255
-80.7329 41.2492 -45.2271  255 255 255
-78.3802 41.6127 -47.3067  255 255 255
-77.6982 41.6268 -47.4203  255 255 255
-85.1598 40.7611 -43.7576  255 255 255
-33.5533 46.2237 -74.2446  255 255 255
-84.6679 39.6551 -43.6053  255 255 255
-46.4793 32.8093 -23.8202  255 255 255
-6.62293 43.9322 -92.6403  255 255 255
-27.7924 41.591 -81.3597  255 255 255
-27.9941 41.3065 -79.6272  255 255 255
-10.9712 42.4798 -90.3657  255 255 255
-32.5788 39.8133 -79.644  255 255 255
-32.5788 39.8136 -79.6449  255 255 255
18.4805 38.4061 -86.238  255 255 255
18.1522 37.6919 -85.3235  255 255 255
19.485 37.1649 -84.8542  255 255 255
-54.882 34.7282 -67.6996  255 255 255
-73.6188 33.1172 -57.7603  255 255 255
-66.315 33.7175 -61.1443  255 255 255
-67.3164 33.4064 -61.1375  255 255 255
-84.4045 31.1896 -50.8969  255 255 255
-55.9373 33.8238 -67.7163  255 255 255
-87.2184 29.193 -50.4406  255 255 255
-89.1668 28.7589 -50.2417  255 255 255
-89.8882 28.3452 -49.9494  255 255 255
3.96429 31.1903 -76.1526  255 255 255
-86.4896 27.9169 -52.6978  255 255 255
-44.5116 31.2326 -78.0767  255 255 255
-83.9371 27.0967 -55.0364  255 255 255
-69.9293 26.951 -63.9009  255 255 255
-83.3069 25.4029 -56.4085  255 255 255
-49.705 17.8653 -61.0621  255 255 255
-16.8358 14.2587 -55.5748  255 255 255
-19.8097 10.6853 -50.7762  255 255 255
-31.8765 10.1611 -51.794  255 255 255
-34.765 9.73003 -50.5735  255 255 255
-11.0151 2.9257 28.7072  255 255 255
-19.5988 5.29538 -1.25417  255 255 255
-16.1225 4.48036 5.67784  255 255 255
-17.5221 3.66748 6.77086  255 255 255
-23.3523 6.45168 -42.7627  255 255 255
-18.2237 2.59992 8.6999  255 255 255
-19.6194 2.13019 8.46052  255 255 255
-26.7768 5.54121 -42.7178  255 255 255
-14.4373 0.648891 28.8077  255 255 255
-22.0403 2.36539 2.77666  255 255 255
-20.7839 1.5046 10.646  255 255 255
-24.6188 1.75587 3.38986  255 255 255
-20.7688 1.33867 9.05052  255 255 255
-19.9561 1.22358 10.7248  255 255 255
-21.3526 1.19317 9.97837  255 255 255
-21.3168 1.19754 9.83823  255 255 255
-17.6002 -0.0491381 26.2871  255 255 255
-18.1319 -0.531593 26.1396  255 255 255
-53.3173 3.40807 -42.4016  255 255 255
-20.9789 -0.0652819 11.7412  255 255 255
-21.3534 -0.399721 12.2366  255 255 255
-27.365 -0.480932 6.35159  255 255 255
-21.3802 -0.942836 13.0562  255 255 255
-28.3222 -0.917718 7.02066  255 255 255
-27.9312 -1.2222 7.29783  255 255 255
-27.9312 -1.22217 7.29776  255 255 255
-25.8258 -1.2686 7.43205  255 255 255
-22.8101 -2.04737 15.198  255 255 255
-23.6252 -2.11903 14.3602  255 255 255
-14.3818 -3.11359 32.1148  255 255 255
-24.8325 -0.204476 -35.7341  255 255 255
-24.5295 -0.149129 -37.3506  255 255 255
-26.2895 -2.18918 8.00453  255 255 255
-23.9963 -2.53216 14.7127  255 255 255
-12.2238 -4.01908 34.2342  255 255 255
-29.625 -3.10139 10.7229  255 255 255
-24.3524 -3.8173 16.4404  255 255 255
-24.6842 -3.82553 16.548  255 255 255
-65.1565 -3.45186 -33.6332  255 255 255
-25.3852 -5.07578 17.9688  255 255 255
-14.6625 -6.15593 33.7604  255 255 255
-43.0316 -4.83443 -31.7152  255 255 255
-4.46082 -6.56931 38.5443  255 255 255
-57.1939 236.615 -153.156  255 255 255
-112.34 221.645 -142.242  255 255 255
-126.007 216.433 -135.275  255 255 255
-121.611 215.493 -135.307  255 255 255
-121.599 215.453 -135.251  255 255 255
-126.894 218.607 -139.686  255 255 255
-120.268 212.815 -133.176  255 255 255
-31.3703 216.954 -144.027  255 255 255
-35.9912 214.252 -141.942  255 255 255
-110.306 205.275 -129.071  255 255 255
-105.968 204.37 -129.523  255 255 255
-113.616 202.43 -126.683  255 255 255
-136.517 218.991 -155.303  255 255 255
-141.624 213.36 -147.843  255 255 255
-47.9093 178.791 -101.075  255 255 255
-27.8497 181.317 -106.603  255 255 255
-102.689 162.131 -76.7749  255 255 255
-64.9471 171.958 -93.1397  255 255 255
-66.3767 171.745 -93.0178  255 255 255
-28.3505 179.104 -105.545  255 255 255
-53.8145 173.106 -95.8969  255 255 255
-58.3582 172.324 -94.8762  255 255 255
-58.3582 172.324 -94.8763  255 255 255
-139.461 192.339 -121.645  255 255 255
-35.4833 175.732 -101.045  255 255 255
-102.735 160.357 -75.7859  255 255 255
-90.5236 164.647 -83.0319  255 255 255
-31.8824 175.838 -102.6  255 255 255
-46.9161 173.25 -98.3059  255 255 255
-54.2267 170.949 -94.9687  255 255 255
-146.088 187.524 -117.082  255 255 255
-146.756 185.906 -116.594  255 255 255
-88.2907 161.929 -82.4634  255 255 255
-71.3906 164.762 -88.0329  255 255 255
-56.769 165.895 -91.9298  255 255 255
-89.7731 158.156 -78.725  255 255 255
-73.239 161.886 -85.8703  255 255 255
-69.942 162.292 -86.9616  255 255 255
9.80533 149.704 -69.6532  255 255 255
-31.4474 168.661 -99.3598  255 255 255
24.2966 148.532 -69.1056  255 255 255
24.2524 148.373 -68.7772  255 255 255
-142.967 179.771 -112.064  255 255 255
-3.47005 145.277 -63.6498  255 255 255
-147.012 178.518 -110.461  255 255 255
-145.844 176.709 -109.443  255 255 255
-152.221 174.933 -106.564  255 255 255
-148.717 173.413 -106.23  255 255 255
-150.169 173.199 -105.992  255 255 255
-68.8253 156.803 -84.3662  255 255 255
-16.1654 132.515 -53.6263  255 255 255
3.09746 130.69 -52.2686  255 255 255
-109.878 137.272 -61.7593  255 255 255
-83.8871 117.53 -32.2347  255 255 255
-106.193 135.265 -66.2348  255 255 255
-111.079 132.594 -64.8188  255 255 255
-54.8446 115.951 -40.1829  255 255 255
24.1687 125.231 -62.743  255 255 255
-199.069 186.882 -166.834  255 255 255
-110.034 129.581 -67.9683  255 255 255
-207.42 198.302 -187.551  255 255 255
-195.746 182.952 -161.097  255 255 255
-128.264 121.5 -69.2719  255 255 255
-85.5012 95.1937 -23.8419  255 255 255
19.818 110.771 -58.8402  255 255 255
12.9148 109.393 -56.1978  255 255 255
17.579 104.447 -63.328  255 255 255
-92.2002 91.6646 -36.5826  255 255 255
-27.8488 90.8931 -43.2908  255 255 255
-7.91638 92.937 -55.0935  255 255 255
-8.30352 89.3066 -57.3872  255 255 255
-67.2207 77.0937 -26.3683  255 255 255
-67.2207 77.0937 -26.3683  255 255 255
-91.8567 72.2794 -14.3105  255 255 255
39.3125 98.0714 -82.7319  255 255 255
-3.73543 87.7437 -61.1527  255 255 255
-0.338194 88.977 -64.8805  255 255 255
28.7109 93.6364 -78.91  255 255 255
-1.04461 87.1537 -64.1839  255 255 255
-9.36398 84.7795 -59.7361  255 255 255
-22.4693 81.676 -53.1412  255 255 255
-22.4726 81.6949 -53.1995  255 255 255
-60.7828 73.9816 -32.9933  255 255 255
-64.6483 73.159 -31.3174  255 255 255
17.2671 88.819 -74.5141  255 255 255
30.9204 91.4989 -82.9427  255 255 255
-60.2367 73.0698 -34.6585  255 255 255
-44.0469 75.9959 -43.1223  255 255 255
23.2301 87.8889 -77.6625  255 255 255
-44.4298 75.3705 -42.8202  255 255 255
21.9288 87.8057 -78.0135  255 255 255
25.8085 88.5689 -80.226  255 255 255
-20.5259 79.9575 -56.1554  255 255 255
-169.486 112.977 -138.588  255 255 255
18.1998 85.7551 -76.1946  255 255 255
-44.8396 74.4586 -44.0235  255 255 255
-44.8244 74.4791 -44.0713  255 255 255
-61.0444 70.9979 -35.5995  255 255 255
-61.0444 70.9979 -35.5994  255 255 255
5.22694 82.8033 -71.9804  255 255 255
33.2004 87.6259 -86.732  255 255 255
2.72068 81.3983 -68.8562  255 255 255
-18.6066 77.666 -58.1417  255 255 255
-47.466 72.4444 -43.3905  255 255 255
4.93231 82.0554 -71.5922  255 255 255
6.49841 81.6799 -72.2145  255 255 255
-13.2186 77.7846 -62.4022  255 255 255
-37.5134 73.1258 -49.266  255 255 255
-23.1191 75.1855 -58.2644  255 255 255
-51.9059 69.9809 -43.0472  255 255 255
-15.0806 75.2009 -63.1084  255 255 255
52.0257 86.6643 -98.591  255 255 255
22.3381 80.5337 -84.6017  255 255 255
-14.0201 71.6856 -66.6344  255 255 255
-53.5168 64.9239 -45.7817  255 255 255
18.041 75.3092 -84.8452  255 255 255
17.7714 73.4137 -85.2901  255 255 255
32.6259 75.7556 -94.7202  255 255 255
22.3861 73.6041 -88.2316  255 255 255
-191.141 91.6819 -182.615  255 255 255
38.1852 68.1245 -104.939  255 255 255
61.5876 71.0507 -116.806  255 255 255
1.63051 60.7842 -81.4481  255 255 255
38.8144 66.2474 -103.937  255 255 255
9.30749 61.187 -90.2962  255 255 255
-4.3349 58.7205 -80.8933  255 255 255
48.3897 65.3305 -111.717  255 255 255
-82.0514 47.7706 -39.8176  255 255 255
-87.848 46.7601 -36.1607  255 255 255
-25.3327 53.0188 -69.9918  255 255 255
-8.65704 53.8162 -84.024  255 255 255
-62.4477 46.8597 -53.2606  255 255 255
-78.2828 43.8042 -44.5388  255 255 255
-78.3281 43.9683 -45.1542  255 255 255
-30.0393 49.6678 -73.0661  255 255 255
-80.0326 43.3997 -44.4948  255 255 255
-80.3421 43.1327 -44.8762  255 255 255
-84.3508 42.1673 -42.4454  255 255 255
-84.3508 42.1673 -42.4455  255 255 255
-10.3131 49.7428 -85.7393  255 255 255
-10.3221 49.731 -85.7184  255 255 255
-57.3849 44.1429 -58.8383  255 255 255
-62.0633 40.5288 -58.2087  255 255 255
-82.6714 36.3854 -45.7035  255 255 255
-6.08787 44.1474 -92.6326  255 255 255
-35.4705 39.2172 -76.7652  255 255 255
-35.4756 39.3042 -77.1474  255 255 255
-88.728 32.892 -47.5053  255 255 255
-53.7289 33.9465 -68.6062  255 255 255
-53.7322 34.0051 -68.855  255 255 255
11.3547 35.0871 -81.427  255 255 255
-90.9815 28.0734 -49.154  255 255 255
-88.6234 26.4893 -52.0221  255 255 255
-84.383 26.8757 -55.0423  255 255 255
-90.282 25.3594 -50.6848  255 255 255
16.0895 26.5787 -69.9593  255 255 255
-83.8097 25.1919 -56.7738  255 255 255
13.4857 26.1474 -69.622  255 255 255
10.5291 25.0035 -67.5593  255 255 255
-73.6403 21.6038 -64.6357  255 255 255
-78.819 17.9502 -61.3285  255 255 255
-9.05363 6.81378 22.2225  255 255 255
-9.05134 6.84175 22.1616  255 255 255
-10.3456 14.1482 -55.4863  255 255 255
-15.3689 14.2136 -56.9154  255 255 255
-12.5286 12.9531 -54.2125  255 255 255
-12.7948 4.92303 23.7484  255 255 255
-17.3495 3.31112 20.1226  255 255 255
-12.0928 2.44303 28.6277  255 255 255
-17.5079 4.24376 6.19882  255 255 255
-37.7356 8.79048 -49.6478  255 255 255
-18.2389 3.42039 6.89641  255 255 255
-18.1775 3.44109 6.66873  255 255 255
-18.8453 2.72398 7.86992  255 255 255
-71.8068 6.33245 -46.2836  255 255 255
-18.9846 2.37501 8.3918  255 255 255
-16.1069 1.00682 26.6463  255 255 255
-11.3422 0.574084 30.8428  255 255 255
-77.0809 5.21377 -46.3617  255 255 255
-78.627 4.55622 -44.3207  255 255 255
-20.1947 0.677041 10.6057  255 255 255
-18.3322 -1.45113 26.826  255 255 255
-9.15693 -2.55004 34.9167  255 255 255
-88.3886 -0.461107 -38.0353  255 255 255
-22.7608 -2.7716 15.1806  255 255 255
-26.4002 -2.55101 8.98452  255 255 255
-14.1944 -4.90025 33.5632  255 255 255
-37.1799 213.98 -140.143  255 255 255
-42.1384 212.166 -139.522  255 255 255
-117.94 203.725 -126.952  255 255 255
-15.4387 189.186 -113.398  255 255 255
-61.2094 174.93 -96.2599  255 255 255
-95.3077 164.117 -79.7663  255 255 255
-95.3075 164.116 -79.766  255 255 255
-2.2589 161.223 -78.6156  255 255 255
24.2948 152.174 -65.2446  255 255 255
-64.245 170.809 -92.9921  255 255 255
-67.2894 170.258 -92.1913  255 255 255
-88.9102 164.817 -83.2032  255 255 255
-44.0656 173.891 -98.9592  255 255 255
-89.5738 164.699 -83.5043  255 255 255
-78.9933 166.786 -87.3298  255 255 255
-102.819 159.082 -74.9389  255 255 255
-87.6861 164.373 -83.6388  255 255 255
-40.0895 173.016 -99.7582  255 255 255
-53.4048 169.533 -94.5219  255 255 255
-100.596 158.028 -75.1603  255 255 255
-83.7485 163.245 -84.5509  255 255 255
-106.621 157.058 -74.1544  255 255 255
-69.6255 164.437 -87.9424  255 255 255
-43.6481 168.771 -95.5947  255 255 255
12.4133 151.258 -69.9519  255 255 255
-78.3981 162.364 -85.1651  255 255 255
-104.237 155.3 -73.1592  255 255 255
-81.3275 161.448 -83.8008  255 255 255
-112.458 178.177 -108.689  255 255 255
-97.4471 155.313 -75.2977  255 255 255
-103.345 153.816 -73.1076  255 255 255
-78.8359 159.818 -83.5798  255 255 255
-7.15152 144.022 -62.0109  255 255 255
-70.6892 160.184 -85.6677  255 255 255
-72.1095 159.671 -85.2378  255 255 255
-72.1095 159.671 -85.2376  255 255 255
25.2315 147.966 -69.9112  255 255 255
-85.4285 156.265 -80.4296  255 255 255
-83.8278 156.547 -80.8613  255 255 255
-66.9739 159.469 -86.2297  255 255 255
-65.1584 159.165 -86.1584  255 255 255
-69.5039 158.097 -84.7958  255 255 255
4.26247 144.702 -66.2005  255 255 255
-90.6365 131.251 -41.8573  255 255 255
-81.3665 154.691 -80.1042  255 255 255
-61.3166 158.432 -86.9079  255 255 255
-11.2356 140.11 -59.2059  255 255 255
-67.2324 156.298 -83.7938  255 255 255
-67.9858 154.739 -83.0653  255 255 255
-105.489 141.492 -65.7279  255 255 255
-17.1044 130.91 -52.8008  255 255 255
-110.462 135.362 -59.9826  255 255 255
-77.721 119.093 -34.5052  255 255 255
-14.9864 128.027 -52.3104  255 255 255
-105.302 137.536 -65.257  255 255 255
-103.783 136.841 -64.8623  255 255 255
-109.19 134.604 -63.048  255 255 255
-82.7828 113.659 -30.6785  255 255 255
25.36 131.507 -65.6445  255 255 255
-12.9832 120.191 -49.3754  255 255 255
-123.71 138.14 -78.2825  255 255 255
-123.926 136.875 -77.7596  255 255 255
-123.947 136.921 -77.7898  255 255 255
-58.7467 111.818 -37.3552  255 255 255
-10.7631 113.496 -49.9699  255 255 255
-92.0743 101.875 -27.6284  255 255 255
1.94742 111.584 -50.1492  255 255 255
-126.695 124.778 -71.6117  255 255 255
-128.324 124.642 -71.4997  255 255 255
-131.005 118.46 -67.5169  255 255 255
41.9339 115.957 -68.8571  255 255 255
-48.4111 96.4748 -34.9707  255 255 255
19.0064 101.677 -68.1075  255 255 255
16.8858 100.439 -66.0173  255 255 255
25.8074 101.779 -70.4213  255 255 255
-61.1741 81.4114 -24.6687  255 255 255
25.3115 99.5079 -72.1311  255 255 255
-50.3733 83.0445 -32.9791  255 255 255
-74.6335 77.412 -19.1163  255 255 255
-72.1166 78.299 -21.4229  255 255 255
30.6076 98.7455 -76.2607  255 255 255
8.1105 94.663 -66.7871  255 255 255
-89.0108 73.3104 -15.2606  255 255 255
-4.51189 90.3157 -59.1699  255 255 255
55.5604 100.695 -90.5759  255 255 255
-27.1801 83.0164 -49.7427  255 255 255
-27.2446 82.9009 -49.4177  255 255 255
55.8036 100.968 -97.4248  255 255 255
-19.6317 83.6629 -53.8999  255 255 255
-44.674 78.3535 -41.0306  255 255 255
-0.321014 85.6037 -64.691  255 255 255
71.7157 97.9678 -102.714  255 255 255
58.5343 90.8904 -100.076  255 255 255
1.63573 80.3588 -71.003  255 255 255
-74.7422 66.2029 -30.5929  255 255 255
-0.64079 78.3762 -70.6012  255 255 255
68.5297 89.2127 -106.974  255 255 255
-75.8422 64.6118 -31.1197  255 255 255
-75.8422 64.612 -31.1203  255 255 255
18.3587 79.6571 -81.9979  255 255 255
31.612 77.6846 -89.3459  255 255 255
48.8133 79.4693 -103.172  255 255 255
-42.0879 63.2628 -54.4097  255 255 255
15.7585 69.8567 -83.9418  255 255 255
-8.04992 67.0922 -74.7371  255 255 255
-56.2145 58.9222 -48.6705  255 255 255
-56.2406 58.9234 -48.6003  255 255 255
-56.2406 58.9235 -48.6006  255 255 255
-25.1408 59.9011 -68.0827  255 255 255
39.7908 67.3712 -114.053  255 255 255
-63.5456 47.0705 -51.9952  255 255 255
-63.4564 47.0217 -51.643  255 255 255
-70.7091 42.3383 -51.1581  255 255 255
-78.2216 40.1848 -47.8272  255 255 255
-3.89948 45.6796 -91.673  255 255 255
-40.4562 40.6832 -71.966  255 255 255
-70.3622 36.3343 -56.1068  255 255 255
-84.3419 33.8441 -49.0045  255 255 255
-62.4637 34.4073 -63.1811  255 255 255
-63.1326 32.1567 -64.3796  255 255 255
-66.6008 30.3174 -63.599  255 255 255
-83.4173 28.3252 -54.2032  255 255 255
19.1184 27.4325 -72.8081  255 255 255
14.4556 24.2583 -68.8522  255 255 255
-82.963 22.5543 -59.0259  255 255 255
-84.4412 19.8672 -59.1667  255 255 255
-81.4486 19.3101 -62.2117  255 255 255
-21.1026 13.6175 -54.4365  255 255 255
-74.3179 10.2984 -51.9997  255 255 255
-100.753 8.97656 -49.7394  255 255 255
-10.2156 1.81053 30.2219  255 255 255
-19.5421 6.57141 -45.6848  255 255 255
-13.9631 1.29416 28.6254  255 255 255
-22.4944 3.11111 1.12731  255 255 255
-23.7793 5.87546 -45.0003  255 255 255
-92.4092 4.50465 -45.0035  255 255 255
-77.3058 4.61107 -44.6221  255 255 255
-92.5019 3.98919 -44.0154  255 255 255
-26.7374 2.36157 -39.4527  255 255 255
-25.7384 -0.431584 -34.6655  255 255 255
-74.2323 -1.27759 -37.2805  255 255 255
-27.698 -4.25855 12.2104  255 255 255
-45.8894 -3.0658 -34.7815  255 255 255
-13.8203 -5.27149 33.8422  255 255 255
-42.4645 -4.44225 -30.8148  255 255 255
-24.3681 -5.60114 18.8635  255 255 255
-24.7678 -5.67752 18.9901  255 255 255
21.804 156.733 -63.4423  255 255 255
22.6218 156.243 -63.5863  255 255 255
2.96862 145.024 -65.7985  255 255 255
-3.77451 138.969 -60.6157  255 255 255
-71.7875 115.876 -34.7329  255 255 255
-115.575 135.013 -68.4257  255 255 255
6.27429 123.775 -56.8908  255 255 255
-109.906 130.998 -66.7257  255 255 255
-109.761 130.706 -66.4536  255 255 255
-109.086 130.458 -66.9599  255 255 255
-121.307 136.609 -78.014  255 255 255
-122.771 134.631 -76.8157  255 255 255
-128.05 128.92 -73.7042  255 255 255
-126.467 126.059 -71.9482  255 255 255
-128.605 123.595 -70.7634  255 255 255
-129.021 121.235 -69.7216  255 255 255
-129.021 121.235 -69.7215  255 255 255
-124.965 119.857 -69.3347  255 255 255
35.1425 111.995 -69.3383  255 255 255
-85.2417 85.6332 -17.4427  255 255 255
30.5653 105.098 -71.0541  255 255 255
-6.86633 97.8531 -55.726  255 255 255
-35.0927 87.9574 -39.5372  255 255 255
70.5048 108.856 -93.8613  255 255 255
52.3219 105.187 -85.4448  255 255 255
34.0159 100.263 -77.5036  255 255 255
4.42665 93.5323 -62.2295  255 255 255
6.12961 93.3526 -63.872  255 255 255
-92.6849 71.9667 -12.0631  255 255 255
-45.3221 81.0957 -38.32  255 255 255
-101.671 76.6084 -27.3585  255 255 255
71.928 100.129 -101.084  255 255 255
24.0376 88.3674 -78.3224  255 255 255
26.5838 88.3736 -80.3148  255 255 255
-37.8821 76.4933 -46.8414  255 255 255
-70.0906 67.9709 -33.1978  255 255 255
-14.563 75.7586 -62.609  255 255 255
2.53118 78.1787 -72.6397  255 255 255
6.88692 70.5019 -81.9111  255 255 255
-24.1338 60.6314 -67.4938  255 255 255
61.3658 72.5846 -114.503  255 255 255
13.7151 63.8412 -87.0321  255 255 255
-2.71046 60.3237 -80.7271  255 255 255
-9.50786 56.9711 -81.5688  255 255 255
-83.9542 42.6315 -41.5561  255 255 255
-65.1899 42.8224 -54.6315  255 255 255
-71.793 41.4393 -52.3586  255 255 255
-138.647 52.6167 -106.444  255 255 255
-89.6272 38.0164 -42.0148  255 255 255
-87.1534 38.2588 -43.7266  255 255 255
5.06792 48.2024 -97.985  255 255 255
-87.9078 36.9129 -43.7243  255 255 255
-25.2979 41.6393 -81.2317  255 255 255
22.5205 42.3674 -91.8663  255 255 255
17.6988 40.4807 -87.3994  255 255 255
-68.2852 33.7544 -59.1  255 255 255
-55.8921 34.6705 -67.0388  255 255 255
3.77779 30.3575 -75.796  255 255 255
-96.3634 26.6477 -54.0083  255 255 255
6.63536 23.6465 -68.3428  255 255 255
-74.9022 22.1194 -65.5019  255 255 255
-11.5275 13.7091 -54.728  255 255 255
-14.5963 13.1372 -54.4222  255 255 255
-16.3603 10.9216 -51.7701  255 255 255
-18.4306 1.65601 22.7273  255 255 255
-29.3904 6.37336 -46.6335  255 255 255
-19.1179 1.47047 21.3317  255 255 255
-24.1484 2.45511 1.90439  255 255 255
-32.7741 3.44903 -42.6474  255 255 255
-12.1919 -1.15451 32.186  255 255 255
-20.0585 -1.75739 24.5145  255 255 255
-37.3038 0.989472 -38.5522  255 255 255
-20.8043 -2.89153 24.4135  255 255 255
-21.4952 -3.08996 22.3166  255 255 255
-41.3112 -3.54456 -32.7188  255 255 255
-30.9297 -4.80875 12.4974  255 255 255
-60.4577 221.949 -149.935  255 255 255
-109.086 136.126 -62.6865  255 255 255
-115.656 137.536 -66.5627  255 255 255
-106.411 132.389 -66.5532  255 255 255
-149.788 138.907 -92.1743  255 255 255
50.643 114.127 -75.7469  255 255 255
-9.95093 92.8736 -53.6033  255 255 255
-83.5242 75.0579 -16.1676  255 255 255
-51.5672 79.9237 -34.866  255 255 255
54.4807 99.4762 -90.6002  255 255 255
71.3672 102.751 -100.278  255 255 255
