ply
format ascii 1.0
element vertex 1254
property float x
property float y
property float z
property uchar red
property uchar green
property uchar blue
end_header
14.0433 24.0495 -70.5914  255 255 255
5.64191 19.8589 -61.0936  255 255 255
35.2703 27.5654 -73.3788  255 255 255
28.1995 24.054 -65.8178  255 255 255
55.1758 28.6414 -39.1318  255 255 255
27.4674 21.8286 -64.1789  255 255 255
-33.9398 -0.100315 -33.6775  255 255 255
27.3834 21.6892 -69.2522  255 255 255
-78.3954 -15.8209 -12.8521  255 255 255
-40.7255 -5.64295 -27.5499  255 255 255
-11.3242 -5.01061 33.2716  255 255 255
34.3023 12.2458 -52.2096  255 255 255
8.52493 -0.26044 28.2956  255 255 255
33.5331 8.30708 -45.5243  255 255 255
50.2438 11.8637 -4.91191  255 255 255
-11.4424 -11.1682 36.7211  255 255 255
12.5961 -5.47485 30.3269  255 255 255
12.5559 -5.4744 30.5265  255 255 255
7.78109 -7.04715 34.996  255 255 255
-22.3309 -16.7444 28.2123  255 255 255
6.44658 -9.04264 37.037  255 255 255
1.21567 -10.8021 39.4215  255 255 255
11.9798 -8.02551 32.8626  255 255 255
12.385 -8.03102 33.0211  255 255 255
-45.8965 -27.8244 2.39668  255 255 255
-44.0115 -27.7013 2.70548  255 255 255
-10.5604 -17.3762 37.5132  255 255 255
53.4482 -0.27906 -6.86985  255 255 255
1.9413 -13.8418 39.5727  255 255 255
-3.64387 -15.7898 39.9545  255 255 255
-5.85603 -17.5113 39.5879  255 255 255
54.4006 -2.41218 -6.64399  255 255 255
-85.3181 -45.4337 21.2544  255 255 255
-5.24533 -18.7308 39.5895  255 255 255
-0.952928 -17.278 40.0934  255 255 255
-7.87769 -19.8023 38.4561  255 255 255
-5.36626 -19.3712 39.2969  255 255 255
13.173 -14.0403 33.9571  255 255 255
5.67554 -16.3656 38.586  255 255 255
14.463 -14.8306 32.0276  255 255 255
14.4631 -14.8307 32.0274  255 255 255
-6.21722 -21.579 38.4972  255 255 255
-3.17673 -20.5637 39.1655  255 255 255
16.2411 -15.9421 30.7925  255 255 255
-39.4021 -36.7674 14.3419  255 255 255
-10.4436 -24.2701 39.0057  255 255 255
-22.8006 -29.8448 27.9484  255 255 255
19.5088 -16.5976 28.2989  255 255 255
-2.25575 -22.8419 39.5935  255 255 255
12.149 -19.0461 34.8255  255 255 255
-10.9454 -27.4389 40.3274  255 255 255
-59.57 -46.5869 28.4263  255 255 255
13.8787 -20.9919 35.3545  255 255 255
-76.5476 -53.0177 31.4229  255 255 255
56.9053 -14.297 -0.866556  255 255 255
-58.3519 -47.7308 28.8704  255 255 255
57.2235 -17.228 -9.50621  255 255 255
14.3972 -23.7817 36.5048  255 255 255
-38.2753 -43.8258 24.633  255 255 255
58.7576 -19.9905 -9.83117  255 255 255
59.7512 -20.3569 -6.40339  255 255 255
-49.2892 -49.503 29.1147  255 255 255
11.2666 -26.4807 39.7793  255 255 255
60.7495 -19.933 -3.19364  255 255 255
60.7012 -21.072 -4.67786  255 255 255
-34.9413 -46.091 26.691  255 255 255
9.87848 -27.6683 40.5498  255 255 255
-48.6458 -49.8354 31.7619  255 255 255
-35.7031 -46.8312 27.6588  255 255 255
-49.9078 -51.1828 32.7502  255 255 255
9.80141 -29.8024 39.408  255 255 255
9.80082 -29.802 39.4101  255 255 255
10.5836 -31.136 37.4088  255 255 255
-47.9111 -52.2843 33.9977  255 255 255
-47.9427 -52.3282 33.892  255 255 255
-40.3186 -50.2035 32.1948  255 255 255
53.3139 -27.1132 -1.01865  255 255 255
52.6436 -28.0262 1.58149  255 255 255
-2.16419 -36.9473 36.4877  255 255 255
-1.82629 -37.8421 34.8657  255 255 255
12.3365 -34.9488 33.1215  255 255 255
-66.2255 -61.6765 43.9146  255 255 255
43.2974 -36.2569 13.4034  255 255 255
-28.1374 -53.6999 36.408  255 255 255
52.096 -35.4098 10.3212  255 255 255
3.35578 -44.0231 35.741  255 255 255
54.7912 -35.6305 10.7608  255 255 255
-58.776 -65.715 50.2677  255 255 255
57.5625 -37.5983 12.1899  255 255 255
-51.7569 -65.8236 51.0891  255 255 255
4.92121 -54.0792 35.5932  255 255 255
59.9281 104.397 -103.97  255 255 255
41.3973 94.5766 -93.3781  255 255 255
41.4925 94.6579 -93.5351  255 255 255
28.353 86.9843 -86.2593  255 255 255
37.4475 91.1584 -91.1341  255 255 255
37.4109 91.1298 -91.0916  255 255 255
40.4416 92.4056 -92.5973  255 255 255
-64.8713 44.5599 -38.8752  255 255 255
19.6226 82.2194 -81.6237  255 255 255
19.7473 82.345 -81.9803  255 255 255
21.3597 82.8742 -83.0901  255 255 255
23.9821 83.9962 -84.6084  255 255 255
28.2212 86.6825 -89.1994  255 255 255
36.318 89.5474 -92.1937  255 255 255
34.5073 87.4317 -91.4031  255 255 255
72.204 105.169 -113.803  255 255 255
70.1833 102.881 -109.736  255 255 255
53.979 93.4386 -103.969  255 255 255
54.0877 92.1829 -105.185  255 255 255
72.4852 98.993 -116.085  255 255 255
-121.773 4.38298 16.8006  255 255 255
-68.3976 36.1719 -44.645  255 255 255
-77.3505 32.1704 -44.2569  255 255 255
-24.3418 52.1611 -68.5709  255 255 255
52.4115 85.7081 -119.008  255 255 255
-73.8068 27.0993 -56.3081  255 255 255
-24.0268 45.1607 -78.0836  255 255 255
38.4088 71.3072 -111.136  255 255 255
38.4076 71.3055 -111.132  255 255 255
41.5626 71.5503 -113.615  255 255 255
15.2494 59.4824 -101.67  255 255 255
-149.463 3.99482 -52.3819  255 255 255
19.4204 60.7025 -104.235  255 255 255
19.4634 60.7904 -104.348  255 255 255
39.3733 68.4179 -114.744  255 255 255
42.1211 70.1828 -119.622  255 255 255
41.216 69.1136 -116.113  255 255 255
-146.041 2.65943 -48.6647  255 255 255
14.9145 57.3556 -101.926  255 255 255
-149.578 -0.236433 -45.7786  255 255 255
13.8122 56.0417 -103.37  255 255 255
13.7564 55.9237 -102.99  255 255 255
37.1962 64.7684 -115.723  255 255 255
-15.6755 31.054 -77.9716  255 255 255
-93.7184 1.97647 -39.2837  255 255 255
27.6716 45.535 -102.457  255 255 255
23.675 41.8446 -89.42  255 255 255
23.7597 41.8836 -89.7125  255 255 255
-90.5998 -4.25559 -31.8503  255 255 255
-66.1487 3.25709 -39.2311  255 255 255
-98.2045 -10.6494 -23.7658  255 255 255
-98.2031 -10.6557 -23.7655  255 255 255
9.43294 26.7102 -70.32  255 255 255
6.94952 25.9509 -71.0744  255 255 255
-91.7516 -9.35877 -24.2743  255 255 255
3.90708 21.1823 -62.8695  255 255 255
5.94255 22.0019 -64.6503  255 255 255
54.9275 31.4526 -39.1474  255 255 255
6.826 20.2309 -68.1773  255 255 255
6.27027 19.2347 -60.8791  255 255 255
10.8523 21.0887 -67.9044  255 255 255
5.49319 18.1322 -59.8477  255 255 255
55.1399 31.1531 -56.5523  255 255 255
33.1383 25.1171 -69.4992  255 255 255
28.3935 21.8992 -64.0407  255 255 255
-43.7315 -5.61266 -26.9553  255 255 255
-9.27727 -1.71312 31.3763  255 255 255
32.2102 18.4296 -60.7659  255 255 255
-77.1947 -18.5867 -11.6774  255 255 255
-44.798 -10.5255 -20.5496  255 255 255
-16.1422 -6.20863 29.6815  255 255 255
34.7577 8.11335 -47.3103  255 255 255
-5.89503 -7.89878 37.9701  255 255 255
-5.8776 -7.88068 37.6769  255 255 255
9.48901 -4.30869 32.3183  255 255 255
-3.02634 -8.57034 38.7775  255 255 255
0.113613 -8.2613 38.5907  255 255 255
-47.077 -24.6117 -1.37324  255 255 255
4.28726 -9.15217 37.8888  255 255 255
-45.9638 -26.2705 0.269747  255 255 255
-43.6926 -28.5289 3.3992  255 255 255
7.3079 -11.9077 37.3135  255 255 255
-47.5212 -30.9321 7.02353  255 255 255
-45.4143 -30.7435 5.86591  255 255 255
-57.1765 -36.6515 14.7526  255 255 255
-85.0564 -46.4328 21.5117  255 255 255
-52.3463 -37.6237 14.7802  255 255 255
-11.2609 -21.8797 38.6823  255 255 255
-66.2227 -41.2119 23.888  255 255 255
55.7394 -6.85611 -6.60781  255 255 255
-4.14584 -20.9199 39.1062  255 255 255
4.42614 -18.329 38.7192  255 255 255
25.1182 -13.8292 23.7777  255 255 255
-65.9134 -43.1186 25.6718  255 255 255
5.20759 -18.8526 38.3694  255 255 255
-11.5261 -24.991 38.1641  255 255 255
21.8673 -15.8728 25.8302  255 255 255
-4.02217 -23.4844 40.5034  255 255 255
2.01749 -22.0345 38.6755  255 255 255
12.0257 -19.6622 35.545  255 255 255
-64.2654 -47.1281 27.3918  255 255 255
-55.9276 -47.6912 28.5428  255 255 255
8.64312 -24.6921 37.6592  255 255 255
1.32309 -27.0993 40.0517  255 255 255
-8.18011 -29.9344 41.8542  255 255 255
-2.22762 -28.7918 42.3256  255 255 255
59.7132 -21.6563 -7.8389  255 255 255
-72.0103 -57.0006 36.9903  255 255 255
60.4057 -21.3418 -5.40742  255 255 255
60.2984 -21.3303 -5.34838  255 255 255
-49.9626 -50.4264 30.7485  255 255 255
-34.2399 -46.0159 26.5565  255 255 255
60.1952 -22.3194 -7.05453  255 255 255
-33.8074 -46.6153 25.377  255 255 255
-41.9843 -48.8465 30.0033  255 255 255
-32.4909 -46.4006 27.1859  255 255 255
61.8057 -24.6878 -4.42178  255 255 255
10.7306 -31.5357 37.1634  255 255 255
21.1686 -31.5692 26.1348  255 255 255
-65.4751 -58.9836 40.362  255 255 255
-69.0045 -59.9515 41.7765  255 255 255
-66.9916 -59.3929 40.8196  255 255 255
-62.8703 -58.6902 40.5581  255 255 255
20.7387 -32.9013 25.3157  255 255 255
7.50148 -37.7931 33.2389  255 255 255
-63.3823 -62.6546 45.2824  255 255 255
-39.9291 -55.2882 40.0602  255 255 255
-28.2505 -52.4907 34.557  255 255 255
-62.8042 -65.0986 48.6295  255 255 255
-24.9958 -54.3323 37.1167  255 255 255
-33.601 -58.0193 41.9083  255 255 255
53.8647 -38.3555 13.952  255 255 255
-29.3224 -57.5942 41.3896  255 255 255
33.4086 -43.8169 21.8751  255 255 255
-4.58898 -54.9206 38.069  255 255 255
-7.27432 70.4298 -56.5607  255 255 255
55.8735 100.917 -98.4427  255 255 255
66.968 105.598 -105.481  255 255 255
29.2092 88.807 -86.8401  255 255 255
19.5333 83.2198 -81.1726  255 255 255
19.5629 83.2576 -81.3084  255 255 255
19.4318 83.0396 -80.7912  255 255 255
32.2043 87.856 -89.3352  255 255 255
29.575 86.9515 -89.0696  255 255 255
32.0862 85.272 -91.0687  255 255 255
31.8568 84.9938 -90.3029  255 255 255
-70.4215 38.7176 -42.373  255 255 255
31.0446 81.2148 -90.8932  255 255 255
-4.17161 62.8754 -77.7814  255 255 255
-120.751 3.3025 16.4977  255 255 255
-53.0804 39.2939 -56.8079  255 255 255
41.1671 75.2565 -109.907  255 255 255
12.6977 54.3461 -103.662  255 255 255
14.8957 55.0833 -104.302  255 255 255
56.0379 71.7758 -126.119  255 255 255
-138.121 -4.0503 -38.9903  255 255 255
-139.14 -4.63344 -37.6551  255 255 255
-28.5876 32.1484 -76.8133  255 255 255
18.8736 41.9745 -90.1118  255 255 255
24.027 43.6873 -92.1107  255 255 255
13.5967 37.9943 -84.7256  255 255 255
-51.0763 13.4637 -53.2839  255 255 255
23.6735 40.2506 -87.4922  255 255 255
26.1523 41.1698 -88.9808  255 255 255
26.1694 41.1175 -88.626  255 255 255
-50.2295 12.0147 -50.7635  255 255 255
-64.6113 3.96197 -41.0667  255 255 255
9.91732 30.5083 -74.5388  255 255 255
11.3364 28.9107 -72.6328  255 255 255
-82.7029 -11.6512 -16.4132  255 255 255
29.0655 23.3165 -65.8543  255 255 255
-49.8925 -5.46232 -26.2813  255 255 255
-19.3158 -2.32361 14.0337  255 255 255
-23.8134 -3.68693 10.3456  255 255 255
34.1928 15.1934 -53.8571  255 255 255
-10.4814 -8.1812 36.0649  255 255 255
-8.21871 -7.53547 36.8048  255 255 255
-11.1102 -10.025 36.4546  255 255 255
5.40898 -5.57947 35.2337  255 255 255
-9.71348 -11.8978 37.9951  255 255 255
-9.7274 -11.9306 37.7761  255 255 255
1.45959 -9.0224 38.791  255 255 255
-51.9905 -28.2549 -0.722765  255 255 255
-4.72529 -13.6585 39.7358  255 255 255
9.65038 -10.0981 35.3228  255 255 255
-8.35977 -17.4678 38.8091  255 255 255
0.932661 -14.5041 40.1895  255 255 255
-7.60059 -20.3237 38.1347  255 255 255
5.46479 -16.4761 38.3796  255 255 255
-70.6018 -43.1309 20.2507  255 255 255
-65.8381 -42.3623 24.2864  255 255 255
-57.6691 -41.631 21.5162  255 255 255
-62.4004 -42.7447 25.612  255 255 255
-0.0456934 -21.607 38.8403  255 255 255
0.137145 -22.3379 39.0145  255 255 255
13.1443 -19.2081 35.2982  255 255 255
12.5217 -20.3339 36.5214  255 255 255
-62.4919 -46.836 29.0437  255 255 255
-63.2233 -48.8522 30.0327  255 255 255
12.8747 -22.3507 36.3201  255 255 255
-40.9694 -43.9112 23.6883  255 255 255
-40.916 -43.815 24.0698  255 255 255
-38.9379 -43.2684 23.717  255 255 255
-58.616 -48.8491 32.4523  255 255 255
-52.1884 -47.3816 29.3511  255 255 255
-40.9351 -44.444 25.1797  255 255 255
0.835201 -27.5662 40.7763  255 255 255
-52.492 -48.1128 30.3037  255 255 255
-1.49844 -29.2367 42.9156  255 255 255
-68.0789 -55.3715 35.434  255 255 255
-48.4826 -50.0395 31.8717  255 255 255
-49.8243 -50.6574 33.3237  255 255 255
-49.7476 -50.7108 33.5336  255 255 255
-34.2278 -47.325 25.1068  255 255 255
-33.7539 -46.3991 27.7565  255 255 255
-33.0218 -46.8884 27.385  255 255 255
1.11811 -32.4646 40.5295  255 255 255
-33.723 -47.9608 28.4433  255 255 255
52.2296 -26.8595 -0.750289  255 255 255
-42.3546 -51.1066 30.8654  255 255 255
-41.7789 -51.4839 30.9451  255 255 255
-14.75 -43.2413 32.0715  255 255 255
54.2784 -29.6481 3.36762  255 255 255
17.2039 -35.0003 28.9594  255 255 255
45.4799 -41.9648 18.2205  255 255 255
35.0259 90.0432 -89.6923  255 255 255
50.1228 89.5027 -113.153  255 255 255
-40.2065 44.8514 -60.9814  255 255 255
40.6138 72.5464 -111.794  255 255 255
61.3574 79.2194 -124.412  255 255 255
-102.36 -12.7937 -20.9866  255 255 255
3.77577 2.1001 24.5753  255 255 255
-10.6025 -3.63243 32.1162  255 255 255
45.2833 16.2729 -59.4064  255 255 255
50.6866 11.7977 -3.75485  255 255 255
-9.35054 -8.91493 36.9538  255 255 255
-11.2868 -17.2709 37.4059  255 255 255
53.9979 -0.0309895 -4.264  255 255 255
2.83421 -14.2328 39.2035  255 255 255
-72.5779 -41.8736 19.4923  255 255 255
-10.7308 -20.828 37.5336  255 255 255
-10.7424 -20.817 37.5315  255 255 255
-64.8461 -42.8374 23.3322  255 255 255
-36.403 -35.7801 15.0135  255 255 255
-15.8349 -26.4144 39.6908  255 255 255
-67.5293 -46.464 25.351  255 255 255
13.8796 -19.5433 35.1058  255 255 255
2.05358 -23.5562 40.4501  255 255 255
-67.2723 -49.001 27.8578  255 255 255
-39.8726 -43.9417 23.6371  255 255 255
-1.02202 -28.5493 41.9787  255 255 255
-47.9646 -48.8024 30.0578  255 255 255
-42.9438 -47.7252 26.2851  255 255 255
-42.5058 -48.212 29.3218  255 255 255
-35.7886 -47.4637 28.4406  255 255 255
-35.7686 -47.4988 28.4519  255 255 255
0.234264 -32.4153 40.2843  255 255 255
54.1438 -27.5625 -0.125625  255 255 255
-29.9513 -48.2213 28.953  255 255 255
-0.00100916 -36.1521 36.8753  255 255 255
39.0553 -33.1761 9.42126  255 255 255
-41.7959 -58.971 43.9236  255 255 255
53.668 -36.6433 11.2734  255 255 255
53.1878 -38.965 14.9475  255 255 255
42.3356 -46.5651 27.1677  255 255 255
56.377 78.1133 -120.596  255 255 255
-71.2982 6.21326 -43.7538  255 255 255
34.4578 23.9644 -68.5374  255 255 255
-11.7744 -15.7112 36.9109  255 255 255
0.781655 -12.6882 39.6589  255 255 255
-2.29872 -17.3481 40.4835  255 255 255
-2.2551 -17.3743 40.0164  255 255 255
-65.2874 -41.7195 23.2155  255 255 255
-64.4921 -46.6447 25.9975  255 255 255
-21.8239 -32.8349 27.0987  255 255 255
-57.8869 -46.1372 27.9268  255 255 255
2.48121 -24.3839 40.6175  255 255 255
-73.5684 -53.3447 31.8768  255 255 255
-4.07438 -29.2995 43.1794  255 255 255
-53.1014 -49.1279 30.3311  255 255 255
-21.2915 -38.7832 26.6604  255 255 255
3.70924 -29.0662 42.6349  255 255 255
15.3799 -32.761 32.8965  255 255 255
14.0942 -38.3477 29.8883  255 255 255
53.6105 -37.8846 13.6771  255 255 255
25.0477 77.8197 -90.911  255 255 255
-14.6496 55.1721 -87.356  255 255 255
16.9537 59.3748 -101.805  255 255 255
16.9147 59.2875 -101.461  255 255 255
58.4124 76.3312 -128.848  255 255 255
-8.91828 -16.3128 38.6925  255 255 255
-66.4897 -46.7619 27.6634  255 255 255
5.18946 -26.5311 40.0688  255 255 255
12.5887 -27.5089 38.5943  255 255 255
-66.6037 -59.1743 40.48  255 255 255
-66.3778 -60.7006 43.3058  255 255 255
-42.5394 -58.0267 41.9749  255 255 255
-42.5485 -57.9137 42.0026  255 255 255
55.5626 -36.9815 9.97094  255 255 255
14.9493 68.453 -88.3319  255 255 255
-67.3733 -56.1709 36.9493  255 255 255
-64.6333 -61.2564 43.3858  255 255 255
-7.41006 -42.7894 32.513  255 255 255
46.9645 85.7686 -106.406  255 255 255
-57.6646 34.534 -55.2989  255 255 255
53.8118 87.5831 -108.4  255 255 255
-1.59968 -22.5935 39.2651  255 255 255
3.41298 -25.1888 38.7753  255 255 255
23.8822 65.3156 -104.513  255 255 255
10.6951 -23.0779 37.3226  255 255 255
-44.7078 54.1091 -48.4006  255 255 255
-44.8984 38.7504 -63.9474  255 255 255
-19.7541 100.808 -42.8794  255 255 255
31.1805 114.76 -63.6975  255 255 255
30.7127 114.246 -63.865  255 255 255
61.6255 124.632 -79.3348  255 255 255
40.3298 116.117 -69.4832  255 255 255
0.616101 99.9699 -48.3111  255 255 255
-5.1571 98.6332 -46.5195  255 255 255
39.6608 115.489 -70.2939  255 255 255
65.2343 125.367 -84.1864  255 255 255
39.3094 114.485 -71.2959  255 255 255
-0.434534 98.483 -49.4077  255 255 255
39.6841 112.225 -71.05  255 255 255
13.5807 102.095 -58.8204  255 255 255
-13.3225 91.2699 -43.5687  255 255 255
37.1957 111.197 -72.6047  255 255 255
37.1946 111.196 -72.6022  255 255 255
-20.228 88.7587 -40.0231  255 255 255
17.4811 103.797 -61.9593  255 255 255
15.3914 102.349 -60.0615  255 255 255
13.4547 101.748 -59.3251  255 255 255
13.4908 101.826 -59.4296  255 255 255
54.6164 61.4351 -7.89143  255 255 255
-19.3164 88.7858 -40.5987  255 255 255
80.6399 126.986 -95.5828  255 255 255
-10.4268 92.1723 -45.9693  255 255 255
-8.36706 92.7353 -46.9586  255 255 255
-9.21308 92.3042 -46.7048  255 255 255
52.9694 64.2874 -12.5747  255 255 255
6.18968 98.0863 -55.624  255 255 255
-41.8488 74.6679 -21.288  255 255 255
-27.9747 84.7022 -35.614  255 255 255
-2.2301 94.8005 -50.8413  255 255 255
-12.6477 90.4613 -44.654  255 255 255
24.8741 105.416 -66.675  255 255 255
27.0236 106.096 -67.6626  255 255 255
58.6353 55.7437 -1.82067  255 255 255
14.426 100.973 -60.2191  255 255 255
4.2924 96.9423 -54.9156  255 255 255
3.36577 96.5195 -54.4279  255 255 255
54.9965 61.342 -9.75933  255 255 255
54.9643 60.6389 -8.77589  255 255 255
-48.1925 76.4697 -23.6579  255 255 255
57.0648 57.0094 -4.16446  255 255 255
-41.5361 78.6833 -27.5048  255 255 255
20.4646 102.972 -64.3523  255 255 255
52.5303 64.8526 -15.0453  255 255 255
24.1726 104.294 -66.5242  255 255 255
24.3903 103.718 -65.6294  255 255 255
25.8751 104.739 -67.4022  255 255 255
-7.56716 91.8861 -48.4955  255 255 255
22.4982 103.736 -66.1037  255 255 255
53.6729 62.5627 -12.4541  255 255 255
56.4309 58.4161 -6.77082  255 255 255
17.413 101.711 -63.3366  255 255 255
53.4624 61.6599 -11.4953  255 255 255
-14.6746 89.2125 -44.7789  255 255 255
-12.1568 89.8432 -45.9038  255 255 255
-50.559 74.917 -22.5016  255 255 255
54.448 62.101 -12.414  255 255 255
-12.9999 89.213 -45.2781  255 255 255
2.22298 95.299 -54.3308  255 255 255
3.17925 95.8433 -55.2669  255 255 255
52.6925 114.504 -82.9401  255 255 255
23.3621 103.197 -66.6364  255 255 255
23.3615 103.196 -66.6353  255 255 255
-42.7558 77.1186 -26.8516  255 255 255
26.7938 104.569 -68.8704  255 255 255
60.7193 51.9076 0.76438  255 255 255
-36.1679 79.7962 -31.2114  255 255 255
4.1671 95.7226 -55.8316  255 255 255
5.70863 96.1834 -56.4515  255 255 255
26.0622 103.979 -68.6128  255 255 255
26.0131 103.812 -68.4038  255 255 255
51.3806 33.6613 25.9129  255 255 255
-7.06113 91.2726 -49.7196  255 255 255
90.8806 127.079 -103.144  255 255 255
62.6863 115.109 -86.0248  255 255 255
54.0926 61.5791 -13.2635  255 255 255
43.6146 26.4874 35.2513  255 255 255
65.1237 117.734 -91.0059  255 255 255
52.4247 63.5544 -16.8454  255 255 255
20.1896 10.8938 57.1339  255 255 255
6.74063 95.5462 -58.2276  255 255 255
6.4934 95.1725 -57.5779  255 255 255
6.78018 95.6577 -58.3376  255 255 255
49.2172 38.8078 17.1764  255 255 255
0.758842 93.2654 -54.9374  255 255 255
21.3953 101.33 -67.2196  255 255 255
2.48072 93.807 -55.9939  255 255 255
0.00130503 92.8144 -54.6916  255 255 255
29.0426 103.816 -71.9811  255 255 255
41.8069 29.5557 29.782  255 255 255
51.5214 35.5069 20.9335  255 255 255
23.2011 17.0961 47.524  255 255 255
18.5387 10.9656 56.0268  255 255 255
50.973 36.5554 19.1081  255 255 255
-12.5548 87.5673 -47.7135  255 255 255
24.2328 101.04 -68.9364  255 255 255
52.942 61.7895 -16.4176  255 255 255
22.4895 14.0903 51.0651  255 255 255
53.5345 60.423 -15.4816  255 255 255
-0.102679 91.498 -55.1159  255 255 255
53.0836 60.8349 -16.5373  255 255 255
20.1517 9.07249 57.7774  255 255 255
23.6231 99.0915 -67.8236  255 255 255
49.8971 36.3861 18.0915  255 255 255
52.3296 33.5858 21.9994  255 255 255
57.4419 110.796 -86.4289  255 255 255
40.1661 106.764 -80.0799  255 255 255
39.1746 105.869 -79.2672  255 255 255
-10.6154 87.2549 -49.8491  255 255 255
-14.1061 85.3376 -47.1392  255 255 255
0.769578 91.4181 -57.0083  255 255 255
16.4111 96.5521 -65.9964  255 255 255
-8.78713 87.271 -51.6875  255 255 255
41.6382 32.0138 22.6574  255 255 255
-23.4695 81.7692 -42.7949  255 255 255
56.0563 55.2101 -11.1334  255 255 255
82.063 119.147 -103.949  255 255 255
56.3185 54.3376 -10.6456  255 255 255
57.6548 53.2913 -9.20323  255 255 255
78.1687 117.045 -100.735  255 255 255
55.7891 54.5989 -10.9854  255 255 255
59.6713 111.914 -92.3802  255 255 255
59.6938 111.926 -92.419  255 255 255
21.0934 11.1205 52.9658  255 255 255
81.768 118.705 -104.302  255 255 255
25.8891 98.1028 -71.8882  255 255 255
25.9289 98.1578 -71.9162  255 255 255
76.6226 118.168 -103.838  255 255 255
76.7675 118.435 -104.319  255 255 255
58.5524 50.6223 -6.40907  255 255 255
-54.2362 83.9463 -43.7302  255 255 255
80.6142 117.258 -103.833  255 255 255
-11.6238 84.6887 -50.6628  255 255 255
49.7618 34.8606 15.9085  255 255 255
81.8398 117.849 -105.173  255 255 255
59.9379 109.492 -92.423  255 255 255
49.6735 35.0153 15.0624  255 255 255
-8.80381 85.3233 -53.073  255 255 255
58.8402 49.7572 -7.28138  255 255 255
58.1733 50.6884 -8.69972  255 255 255
-7.30432 85.4324 -54.1699  255 255 255
-7.30444 85.4327 -54.1698  255 255 255
72.5243 113.223 -100.795  255 255 255
-51.1286 69.7407 -26.8554  255 255 255
52.8321 106.689 -90.4884  255 255 255
54.7021 47.6935 -5.33395  255 255 255
73.4452 112.959 -101.702  255 255 255
-0.549259 87.2389 -58.7177  255 255 255
54.2064 106.686 -91.9  255 255 255
74.9925 112.661 -101.921  255 255 255
75.8412 113.641 -103.423  255 255 255
-57.6686 66.8743 -22.8875  255 255 255
50.0094 33.4664 14.887  255 255 255
-6.52664 84.8039 -55.6803  255 255 255
45.5152 102.802 -86.7943  255 255 255
106.168 126.631 -127.075  255 255 255
60.9903 45.0106 -3.65515  255 255 255
50.2896 33.5072 13.9784  255 255 255
-49.5889 69.0328 -28.388  255 255 255
55.2968 53.2156 -16.0012  255 255 255
-28.0238 76.9399 -43.0549  255 255 255
45.9471 101.267 -85.9823  255 255 255
49.2113 103.538 -89.8022  255 255 255
56.7255 50.871 -13.0866  255 255 255
60.5888 45.2712 -5.02407  255 255 255
-16.0089 80.637 -50.4254  255 255 255
47.4793 102.108 -87.8378  255 255 255
-1.68261 85.8422 -59.9068  255 255 255
51.4811 31.1572 15.9543  255 255 255
118.639 129.029 -134.622  255 255 255
-32.6966 74.4825 -40.241  255 255 255
50.1136 32.5835 13.7604  255 255 255
15.2253 91.1076 -70.4776  255 255 255
58.2408 47.8915 -10.2433  255 255 255
55.5888 25.0207 24.5764  255 255 255
-1.29487 84.6219 -59.769  255 255 255
54.6645 52.9061 -17.8817  255 255 255
56.7274 22.7528 27.766  255 255 255
54.3626 102.707 -92.8996  255 255 255
12.4329 89.6142 -69.6642  255 255 255
-29.0104 75.3397 -43.8558  255 255 255
-16.3089 79.1578 -51.162  255 255 255
-16.3256 79.0157 -51.0113  255 255 255
-1.97595 84.3019 -60.551  255 255 255
-1.97701 84.3003 -60.5478  255 255 255
-2.05197 84.1849 -60.2661  255 255 255
-2.84982 84.3175 -60.6316  255 255 255
-55.7519 65.4508 -25.8361  255 255 255
-55.752 65.451 -25.8365  255 255 255
-17.7582 78.5482 -50.43  255 255 255
127.353 129.957 -141.009  255 255 255
-17.3263 78.2617 -50.4951  255 255 255
-17.3402 78.2404 -50.4464  255 255 255
54.2573 26.3367 20.6798  255 255 255
57.2444 21.5033 27.973  255 255 255
-33.8768 72.9976 -41.1887  255 255 255
-33.9028 72.7074 -40.6487  255 255 255
-13.2806 79.327 -53.3737  255 255 255
-0.824141 84.0577 -61.8626  255 255 255
71.166 109.182 -106.531  255 255 255
-19.8215 77.2888 -49.4595  255 255 255
41.1833 98.2624 -87.6633  255 255 255
70.4347 107.476 -104.203  255 255 255
-56.4704 64.7763 -26.1437  255 255 255
87.7028 114.662 -117.425  255 255 255
35.4284 95.2851 -83.3168  255 255 255
40.0798 97.3193 -86.959  255 255 255
40.0717 97.3162 -86.909  255 255 255
56.7383 21.6393 26.9492  255 255 255
-16.7105 78.5518 -52.6497  255 255 255
39.049 96.7974 -86.4669  255 255 255
-16.6949 77.8023 -52.253  255 255 255
-16.7534 77.664 -51.9425  255 255 255
39.4458 96.3706 -86.5464  255 255 255
56.5962 48.1027 -14.6696  255 255 255
55.7101 49.0197 -16.4653  255 255 255
-37.6927 70.7629 -39.2983  255 255 255
-15.1766 78.2652 -53.6189  255 255 255
-7.2456 80.8215 -58.9932  255 255 255
43.4995 97.139 -89.3557  255 255 255
43.4999 97.1395 -89.3565  255 255 255
40.5834 97.2142 -89.4649  255 255 255
49.8182 30.6992 11.5222  255 255 255
-21.6042 75.7136 -50.0808  255 255 255
52.5688 98.0719 -93.3925  255 255 255
39.4104 95.2092 -88.0317  255 255 255
53.4846 52.0011 -23.6049  255 255 255
59.4279 41.7033 -8.02018  255 255 255
-41.4951 68.426 -37.7929  255 255 255
44.6965 20.8774 25.8135  255 255 255
56.0532 46.622 -16.1887  255 255 255
-45.6067 66.7303 -35.1746  255 255 255
38.2336 93.8068 -87.6832  255 255 255
-17.138 75.6366 -53.2809  255 255 255
60.5057 40.8724 -8.26045  255 255 255
49.9129 29.429 10.5345  255 255 255
54.6992 23.4827 19.6529  255 255 255
55.1446 22.8894 20.3855  255 255 255
55.1077 22.9264 20.3602  255 255 255
-47.6777 65.4935 -33.8335  255 255 255
-47.6782 65.4924 -33.8297  255 255 255
-47.5446 62.3992 -29.2258  255 255 255
-19.2372 74.3868 -52.5605  255 255 255
29.4783 89.892 -82.5309  255 255 255
53.1068 24.8895 16.5683  255 255 255
52.1562 26.3623 13.8333  255 255 255
57.7577 18.5565 25.7848  255 255 255
17.9365 85.7488 -76.2563  255 255 255
-1.41073 80.0421 -65.1672  255 255 255
53.9582 94.7431 -94.8996  255 255 255
-55.8747 62.0857 -29.2331  255 255 255
-57.1916 61.4933 -28.1523  255 255 255
-47.3094 64.3642 -34.5857  255 255 255
53.9785 22.968 18.241  255 255 255
-50.0883 63.6956 -33.1717  255 255 255
-48.6229 60.8784 -29.1392  255 255 255
-48.6213 60.8919 -29.161  255 255 255
52.6786 49.6823 -24.8287  255 255 255
0.0159783 79.8691 -66.2036  255 255 255
55.4312 97.6386 -101.14  255 255 255
55.7032 97.8453 -101.528  255 255 255
88.7404 108.812 -122.887  255 255 255
-0.144124 79.1937 -66.2077  255 255 255
53.1737 23.7272 15.694  255 255 255
-24.9824 71.1529 -50.3998  255 255 255
-27.4757 70.7749 -49.8581  255 255 255
-44.2948 64.8041 -37.5962  255 255 255
-42.6743 65.2208 -38.5948  255 255 255
-13.1527 74.503 -57.9806  255 255 255
-64.7972 58.0471 -23.7307  255 255 255
52.7333 24.4699 13.6209  255 255 255
-16.6094 73.4657 -56.3476  255 255 255
39.1958 90.9835 -91.7706  255 255 255
-14.8072 73.6415 -56.9282  255 255 255
54.5738 46.7641 -23.2497  255 255 255
-58.8931 59.6997 -28.2807  255 255 255
-70.1952 56.7119 -21.7447  255 255 255
-50.9144 62.4193 -34.5555  255 255 255
87.187 104.58 -121.277  255 255 255
93.1949 104.374 -120.999  255 255 255
-56.4225 60.0691 -29.932  255 255 255
-12.3127 74.0476 -59.7035  255 255 255
1.68602 78.4504 -68.8202  255 255 255
4.63382 79.7573 -71.2391  255 255 255
52.1174 24.5509 12.0239  255 255 255
85.998 103.702 -120.279  255 255 255
-21.3728 71.0019 -53.6356  255 255 255
87.8893 104.207 -122.005  255 255 255
43.8359 18.1618 23.1183  255 255 255
0.575504 77.6833 -68.2545  255 255 255
-23.9379 69.5499 -51.7505  255 255 255
-22.3587 70.4316 -53.5635  255 255 255
-23.4484 70.48 -53.275  255 255 255
-69.0423 56.5158 -22.9185  255 255 255
-65.7361 51.9145 -16.3541  255 255 255
24.5602 84.5449 -83.8368  255 255 255
74.7248 94.4095 -106.027  255 255 255
54.5112 93.6072 -103.539  255 255 255
-6.37633 75.2196 -64.8439  255 255 255
3.98206 77.7623 -70.5032  255 255 255
85.3026 101.767 -120.396  255 255 255
58.1388 16.3697 23.4532  255 255 255
-10.4629 73.7259 -62.1175  255 255 255
2.97958 77.9279 -71.188  255 255 255
2.56752 77.2553 -69.7871  255 255 255
98.4753 103.392 -124.841  255 255 255
-12.6261 72.7002 -60.352  255 255 255
-14.3346 71.6857 -58.6337  255 255 255
86.63 102.408 -122.336  255 255 255
0.197733 75.9234 -67.9167  255 255 255
0.539789 76.6091 -69.0275  255 255 255
52.1977 23.0429 12.1362  255 255 255
-23.479 69.4922 -54.092  255 255 255
25.7605 84.9076 -86.5185  255 255 255
73.9909 97.5472 -114.352  255 255 255
54.0474 43.4411 -22.933  255 255 255
-13.8992 71.675 -60.1436  255 255 255
5.07489 77.2207 -72.6652  255 255 255
-14.1764 71.3172 -60.307  255 255 255
0.670222 75.3618 -69.8252  255 255 255
-42.365 62.3214 -41.3211  255 255 255
78.3397 98.0889 -118.49  255 255 255
55.7993 18.0747 17.9838  255 255 255
53.5359 45.8078 -28.8305  255 255 255
-13.5446 70.7345 -61.0928  255 255 255
106.914 108.529 -141.734  255 255 255
59.5253 36.1458 -13.762  255 255 255
60.1136 35.6356 -13.0975  255 255 255
48.2133 37.5954 -15.0632  255 255 255
47.2176 9.21926 33.3212  255 255 255
58.4385 14.0036 23.9199  255 255 255
-14.3621 70.1825 -60.5117  255 255 255
-14.3688 70.1712 -60.487  255 255 255
0.809036 74.8175 -70.7062  255 255 255
43.3183 87.4778 -98.5741  255 255 255
47.3438 9.29908 32.7129  255 255 255
58.399 14.0449 23.2611  255 255 255
39.991 86.7208 -97.0675  255 255 255
58.9411 13.4272 24.0899  255 255 255
39.0473 86.7961 -97.4507  255 255 255
26.4586 82.2651 -88.3806  255 255 255
51.6684 22.1627 8.89549  255 255 255
59.8096 11.7377 26.176  255 255 255
52.7406 88.8771 -104.242  255 255 255
68.9992 95.1947 -118.044  255 255 255
89.1145 99.1823 -127.224  255 255 255
-47.9961 59.1442 -38.4418  255 255 255
50.3818 23.2129 6.54616  255 255 255
54.3379 89.4442 -107.335  255 255 255
-57.337 52.4676 -26.0113  255 255 255
53.0603 19.7095 11.6266  255 255 255
-11.941 69.6576 -64.058  255 255 255
49.2335 87.2455 -104.559  255 255 255
52.1152 20.7104 8.98599  255 255 255
51.8813 20.6054 9.23121  255 255 255
53.6602 42.3906 -29.0821  255 255 255
-61.9994 55.2566 -31.2788  255 255 255
18.0512 77.7646 -84.5793  255 255 255
55.27 40.3751 -25.9231  255 255 255
51.3895 21.854 6.52366  255 255 255
35.7638 83.1057 -97.1151  255 255 255
54.1266 18.1754 12.3789  255 255 255
-49.2805 58.0278 -39.2561  255 255 255
36.523 86.1975 -103.013  255 255 255
57.7697 12.8963 20.8892  255 255 255
-48.6646 58.1602 -40.1245  255 255 255
51.9563 20.1928 8.1847  255 255 255
-24.9759 64.978 -56.7939  255 255 255
60.8266 32.5054 -14.7446  255 255 255
-34.9388 61.8369 -49.6525  255 255 255
-5.98016 70.0211 -69.7832  255 255 255
55.619 38.6755 -25.4424  255 255 255
51.3659 20.1626 7.51332  255 255 255
61.0664 32.1591 -15.0982  255 255 255
30.594 79.3004 -92.5195  255 255 255
48.466 85.8356 -107.107  255 255 255
49.2491 22.7159 3.12666  255 255 255
53.5276 17.4132 11.5621  255 255 255
-2.76462 69.9152 -71.6023  255 255 255
59.9677 32.455 -16.4312  255 255 255
46.481 20.9301 5.8771  255 255 255
61.0455 31.7279 -15.4672  255 255 255
59.4889 32.6914 -17.3314  255 255 255
28.8484 79.2611 -94.446  255 255 255
28.5852 78.9924 -93.7622  255 255 255
49.5718 15.2541 15.0857  255 255 255
53.4699 17.1192 11.1561  255 255 255
76.3855 90.3227 -121.097  255 255 255
-33.9562 60.7704 -51.0956  255 255 255
54.2614 16.2247 12.0943  255 255 255
54.1681 38.5095 -27.9313  255 255 255
48.8648 22.2461 1.85226  255 255 255
60.1996 31.4066 -16.4048  255 255 255
55.7355 14.4499 14.4847  255 255 255
-24.2986 63.7389 -59.0782  255 255 255
55.9999 35.6 -23.3649  255 255 255
50.588 83.0646 -106.225  255 255 255
-49.8979 56.2476 -41.3101  255 255 255
56.4207 12.9987 16.4777  255 255 255
-30.0058 61.6894 -55.3655  255 255 255
21.6446 75.5566 -89.3834  255 255 255
56.9191 12.5162 17.0143  255 255 255
49.029 21.7435 1.51216  255 255 255
-1.72123 69.383 -74.7519  255 255 255
82.5666 90.3447 -126.61  255 255 255
59.2805 30.6458 -16.6348  255 255 255
52.7474 39.5183 -31.8016  255 255 255
31.3304 78.0865 -96.9735  255 255 255
54.2922 15.3589 11.2988  255 255 255
-12.4882 66.0717 -68.0325  255 255 255
58.9998 31.077 -18.1053  255 255 255
-49.8527 55.7396 -42.2466  255 255 255
-49.8066 55.6318 -42.0426  255 255 255
59.1992 30.5006 -17.3676  255 255 255
60.7948 84.0621 -113.946  255 255 255
54.0005 14.9515 11.2197  255 255 255
54.02 14.9902 11.1078  255 255 255
-50.6854 54.9122 -41.2036  255 255 255
-49.0285 55.4123 -42.5189  255 255 255
24.6479 75.4268 -93.2036  255 255 255
-13.8752 64.4315 -66.1587  255 255 255
-13.7854 64.6542 -66.6998  255 255 255
-22.9747 62.7707 -61.7471  255 255 255
53.0357 38.7363 -32.7232  255 255 255
56.2919 35.1297 -26.8227  255 255 255
56.1542 35.095 -26.6043  255 255 255
56.9663 33.7455 -24.7043  255 255 255
59.6466 30.628 -19.5057  255 255 255
59.5923 30.0844 -18.6757  255 255 255
-49.4301 54.8681 -42.7546  255 255 255
-4.74774 66.8371 -73.3834  255 255 255
49.2116 20.3012 0.991357  255 255 255
49.5615 20.4331 0.552294  255 255 255
53.4921 15.7295 8.4337  255 255 255
-2.42726 67.5055 -75.7548  255 255 255
57.0775 33.6948 -25.2287  255 255 255
14.9123 68.981 -81.6246  255 255 255
53.7803 14.7073 10.1048  255 255 255
-25.2482 61.321 -60.1541  255 255 255
-49.0461 54.6336 -42.8181  255 255 255
14.4632 68.9431 -81.8553  255 255 255
58.2007 32.6499 -24.1583  255 255 255
58.2085 32.6509 -24.1662  255 255 255
51.6185 17.4259 4.61895  255 255 255
56.7654 11.2354 15.1811  255 255 255
-38.7708 57.1405 -50.5892  255 255 255
-38.7714 57.1408 -50.5881  255 255 255
-40.1518 56.7382 -49.6011  255 255 255
55.322 81.356 -113.288  255 255 255
57.5654 31.9872 -23.7976  255 255 255
-49.7473 54.1836 -43.4389  255 255 255
-1.87382 66.8199 -77.1531  255 255 255
53.7695 14.175 9.23848  255 255 255
-11.0799 63.7558 -70.2566  255 255 255
56.7031 34.3103 -29.2483  255 255 255
52.6549 15.0253 7.37048  255 255 255
-51.5858 53.2066 -42.2187  255 255 255
2.81202 67.6267 -80.3216  255 255 255
-51.004 53.4147 -42.9511  255 255 255
-0.822493 66.4187 -77.6117  255 255 255
14.7788 66.6395 -81.1946  255 255 255
56.1462 32.7571 -26.5528  255 255 255
-7.01609 64.6474 -73.7387  255 255 255
-7.04666 64.5855 -73.6068  255 255 255
-7.05253 64.5952 -73.633  255 255 255
-34.2366 57.0214 -53.8795  255 255 255
57.3952 9.75736 15.4167  255 255 255
60.5626 28.3867 -20.2807  255 255 255
60.0812 28.1737 -19.6016  255 255 255
-8.25404 -17.9691 79.003  255 255 255
50.7703 17.4643 1.97181  255 255 255
50.5635 17.3895 2.21205  255 255 255
54.5388 12.609 10.4191  255 255 255
54.5373 12.5988 10.4361  255 255 255
-35.3786 56.8794 -54.0568  255 255 255
56.3573 10.4727 13.6174  255 255 255
52.8189 14.5298 6.56028  255 255 255
52.8189 14.5297 6.56027  255 255 255
-65.1115 49.5636 -33.9571  255 255 255
61.6513 82.1271 -121.655  255 255 255
58.3441 29.9745 -24.3712  255 255 255
56.9572 79.6557 -116.864  255 255 255
54.4746 33.7241 -30.848  255 255 255
55.434 10.9998 12.0025  255 255 255
56.0529 10.1217 13.6325  255 255 255
63.3927 83.3029 -125.993  255 255 255
-39.8108 55.13 -51.937  255 255 255
-39.7543 55.0658 -51.9267  255 255 255
0.238617 65.5186 -80.3829  255 255 255
61.4412 80.1983 -120.873  255 255 255
62.6017 81.1485 -123.355  255 255 255
53.5623 12.7016 7.57123  255 255 255
-60.5765 49.1721 -36.6734  255 255 255
-23.4966 56.9909 -60.2733  255 255 255
-19.4195 59.7826 -66.8919  255 255 255
52.5899 13.686 5.27465  255 255 255
54.7182 11.1639 9.56145  255 255 255
-12.7388 61.0354 -71.5794  255 255 255
54.3765 33.7878 -33.9882  255 255 255
-6.616 62.5297 -76.4748  255 255 255
-21.9285 58.2143 -65.0832  255 255 255
-21.8968 58.2928 -65.4075  255 255 255
-20.2538 58.7943 -66.8258  255 255 255
33.8399 72.5952 -104.933  255 255 255
-28.6442 54.7247 -57.0805  255 255 255
-15.1676 60.4725 -71.3082  255 255 255
51.2963 14.6518 1.92839  255 255 255
-16.4538 59.6643 -69.8721  255 255 255
-10.2455 61.2312 -74.1731  255 255 255
36.1905 72.8176 -106.611  255 255 255
33.4483 72.3153 -105.267  255 255 255
51.96 14.0637 2.58832  255 255 255
40.6065 73.709 -109.923  255 255 255
31.2085 71.7907 -104.613  255 255 255
-37.8405 54.0491 -54.8909  255 255 255
23.0336 69.031 -97.482  255 255 255
-56.0617 49.4286 -41.6874  255 255 255
-50.4834 50.7679 -45.736  255 255 255
-14.0157 60.225 -72.8917  255 255 255
32.7343 72.0805 -106.431  255 255 255
-12.5375 59.8129 -73.1159  255 255 255
-48.8005 50.6967 -47.0711  255 255 255
-20.4776 57.5631 -67.0768  255 255 255
65.0629 -2.22318 30.2968  255 255 255
-54.5659 49.4368 -43.4642  255 255 255
-17.4393 57.8815 -69.6722  255 255 255
12.1842 65.746 -91.9505  255 255 255
63.4033 -0.521546 26.0974  255 255 255
-24.7906 56.1035 -65.5552  255 255 255
-38.0673 50.2404 -50.712  255 255 255
-57.1236 48.2221 -42.1995  255 255 255
60.6963 77.4201 -127.626  255 255 255
21.9734 -12.1336 57.1295  255 255 255
-2.71482 61.6 -82.3758  255 255 255
50.8483 14.0946 -1.39131  255 255 255
-28.3627 54.9334 -63.6986  255 255 255
14.7294 65.1474 -94.441  255 255 255
63.2668 75.9834 -127.093  255 255 255
-23.4931 55.8849 -67.2137  255 255 255
-22.7201 55.8655 -67.4739  255 255 255
-24.9055 54.877 -65.1323  255 255 255
54.1868 9.45603 6.12121  255 255 255
-28.8373 54.4037 -63.4434  255 255 255
-37.7696 51.9264 -56.7561  255 255 255
-37.7674 51.9263 -56.7621  255 255 255
53.6225 10.0679 4.61437  255 255 255
51.3931 12.3031 0.185978  255 255 255
-61.9739 46.3418 -39.6907  255 255 255
-51.3252 48.4237 -46.751  255 255 255
-40.1589 51.1814 -55.5723  255 255 255
-28.8154 53.9342 -64.2367  255 255 255
49.6933 14.5271 -4.68034  255 255 255
-21.6252 55.6561 -69.9112  255 255 255
50.1762 13.7312 -3.31363  255 255 255
-39.9607 51.0578 -56.2243  255 255 255
1.24168 60.1658 -84.9285  255 255 255
37.9593 69.2932 -112.223  255 255 255
-22.8631 54.7286 -68.9278  255 255 255
-24.7652 54.2728 -67.6187  255 255 255
-30.79 52.7225 -63.083  255 255 255
54.1133 8.53416 5.32858  255 255 255
-16.6686 52.626 -66.9772  255 255 255
34.4947 68.5677 -112.091  255 255 255
61.2392 0.0655625 19.8333  255 255 255
-46.3663 48.615 -52.096  255 255 255
-44.8939 48.9464 -53.0751  255 255 255
-45.1288 47.7953 -50.634  255 255 255
-15.3755 52.2986 -68.0902  255 255 255
-15.3752 52.2985 -68.0906  255 255 255
36.8811 67.7138 -112.409  255 255 255
52.6755 9.73212 1.59222  255 255 255
53.1278 9.10871 2.43932  255 255 255
59.2362 2.3102 14.7183  255 255 255
-36.2293 50.5787 -60.1258  255 255 255
60.5458 0.662808 17.5353  255 255 255
-52.5583 46.4473 -47.3414  255 255 255
53.2917 8.61005 2.61461  255 255 255
61.1091 -1.4726 21.3875  255 255 255
22.3285 -13.4839 55.3336  255 255 255
-7.01888 56.7843 -81.4309  255 255 255
55.6277 27.9427 -38.1639  255 255 255
55.6242 27.9415 -38.1584  255 255 255
-44.1596 48.3392 -54.6678  255 255 255
56.3235 27.3414 -37.5673  255 255 255
59.4592 1.37699 15.369  255 255 255
-36.0504 50.0571 -61.0206  255 255 255
52.4793 8.939 0.666311  255 255 255
61.1571 -0.636693 18.2424  255 255 255
50.7249 68.1586 -121.774  255 255 255
61.9969 -1.98879 20.5231  255 255 255
63.5219 -3.89874 24.0094  255 255 255
63.5227 -3.89866 24.0088  255 255 255
61.9934 -2.0011 20.0953  255 255 255
63.0999 -2.58631 21.0996  255 255 255
-46.9587 47.1244 -53.4713  255 255 255
-30.973 50.6801 -65.3461  255 255 255
-26.7976 51.1611 -67.2519  255 255 255
-26.7745 51.6645 -68.533  255 255 255
42.767 66.7999 -118.132  255 255 255
53.6427 7.41422 2.20165  255 255 255
-42.093 47.891 -56.6702  255 255 255
-49.2236 46.4183 -52.3542  255 255 255
61.4916 -1.42432 18.1455  255 255 255
58.6292 1.40415 12.5633  255 255 255
-48.8468 46.2702 -52.53  255 255 255
-59.269 43.845 -44.6743  255 255 255
-29.7391 50.5532 -67.6581  255 255 255
53.6454 6.86253 1.74997  255 255 255
54.1986 5.97957 2.99254  255 255 255
-44.6186 46.4907 -55.7086  255 255 255
51.8064 8.78243 -2.61065  255 255 255
51.805 8.78402 -2.61009  255 255 255
-59.3589 43.2768 -45.282  255 255 255
-53.0224 44.4144 -49.6996  255 255 255
-46.4205 46.0043 -55.2029  255 255 255
58.623 0.747526 11.7316  255 255 255
36.0935 63.9079 -116.109  255 255 255
-66.6436 41.4274 -39.9231  255 255 255
61.5065 -2.57113 17.4584  255 255 255
52.9314 6.87493 -0.644864  255 255 255
59.467 19.7703 -30.0142  255 255 255
53.8843 5.97876 0.793129  255 255 255
53.8844 5.97867 0.793169  255 255 255
-57.5381 43.2455 -47.4856  255 255 255
60.0415 -1.27452 14.3211  255 255 255
60.215 -1.58099 14.5456  255 255 255
58.9673 -0.152244 11.8456  255 255 255
-59.602 42.4387 -45.8351  255 255 255
-59.5777 42.3905 -45.8103  255 255 255
58.1344 0.271359 10.6546  255 255 255
54.9445 4.71968 1.7397  255 255 255
63.6087 -5.88143 22.3708  255 255 255
64.0395 -5.79163 22.0296  255 255 255
59.5416 19.1562 -30.8486  255 255 255
59.6494 19.244 -31.1002  255 255 255
55.8207 2.82767 5.12627  255 255 255
-68.3568 40.5621 -40.6033  255 255 255
-65.1053 41.1933 -42.3668  255 255 255
-53.9601 43.302 -50.5152  255 255 255
61.3032 -3.08919 16.089  255 255 255
22.0701 -14.6721 52.0711  255 255 255
-63.5491 41.2202 -43.2779  255 255 255
-35.1038 47.3959 -65.7129  255 255 255
-35.1062 47.4271 -65.8223  255 255 255
59.7739 -1.67705 12.9902  255 255 255
-46.3155 44.187 -56.0009  255 255 255
64.3639 -7.27566 23.9458  255 255 255
64.364 -7.27574 23.9457  255 255 255
-57.9797 42.0351 -47.8629  255 255 255
-52.07 42.946 -51.8228  255 255 255
-27.9622 48.1542 -70.8256  255 255 255
64.3507 -7.48474 23.8017  255 255 255
21.1586 58.4353 -108.285  255 255 255
12.8529 56.5449 -101.834  255 255 255
-27.5422 48.2099 -71.7952  255 255 255
60.9732 -3.3639 14.9823  255 255 255
-6.46141 52.2037 -87.3507  255 255 255
61.7703 -4.37756 16.7411  255 255 255
61.97 -4.29882 16.5102  255 255 255
-51.4233 42.6912 -53.0047  255 255 255
-68.449 39.5433 -40.8484  255 255 255
-9.09272 -2.29244 31.8623  255 255 255
3.84562 -6.00762 35.9943  255 255 255
62.4127 -5.08952 17.0045  255 255 255
-14.8931 48.7289 -78.8514  255 255 255
-66.1125 39.2369 -41.661  255 255 255
63.0432 -5.68082 18.0667  255 255 255
66.5417 -10.4944 27.6444  255 255 255
66.5404 -10.4945 27.6444  255 255 255
-48.7527 42.4034 -54.6473  255 255 255
-46.1876 42.8777 -56.4494  255 255 255
-51.7812 42.1246 -53.5663  255 255 255
-61.4058 40.2595 -46.5223  255 255 255
-3.55186 52.2793 -91.1499  255 255 255
-13.0329 47.8257 -78.7164  255 255 255
-14.23 47.9648 -79.1242  255 255 255
-62.6237 39.6178 -45.5714  255 255 255
-62.7078 39.8548 -45.7849  255 255 255
-25.8155 47.2284 -74.2056  255 255 255
-64.0769 39.2386 -44.5636  255 255 255
-52.5719 41.1491 -53.3991  255 255 255
54.9868 2.237 0.0284802  255 255 255
54.9868 2.23727 0.0280367  255 255 255
-65.3017 39.0645 -44.4201  255 255 255
-58.0993 40.2064 -49.73  255 255 255
-60.5077 39.7408 -48.2046  255 255 255
-66.8636 38.6599 -44.2673  255 255 255
-37.5383 43.7868 -65.2548  255 255 255
-37.5384 43.7869 -65.2544  255 255 255
63.8872 -8.94209 21.8542  255 255 255
-56.3795 40.0528 -51.3922  255 255 255
-41.2167 43.035 -62.9451  255 255 255
58.3209 -2.18963 7.70846  255 255 255
58.3931 -2.17168 7.62684  255 255 255
-52.9763 40.1469 -52.5401  255 255 255
-49.3841 40.9612 -56.0058  255 255 255
-0.379503 -7.65226 37.8988  255 255 255
-53.422 40.569 -53.9075  255 255 255
1.6667 -8.01976 37.7756  255 255 255
56.3255 -0.318095 3.1744  255 255 255
-55.1154 39.8763 -52.3525  255 255 255
-38.4929 43.0602 -65.2186  255 255 255
-53.9229 40.1954 -53.6575  255 255 255
65.5575 -10.9608 24.5684  255 255 255
-67.4459 37.7511 -43.4087  255 255 255
-3.35854 49.8979 -92.0761  255 255 255
-2.97121 50.5043 -93.9989  255 255 255
-7.9972 -6.09453 36.0646  255 255 255
-7.83676 -5.99304 35.7809  255 255 255
-8.81373 -5.66235 35.225  255 255 255
62.2363 -6.63207 15.161  255 255 255
62.2148 -6.64785 15.1934  255 255 255
-45.5694 41.7359 -60.5097  255 255 255
-2.03846 -7.65585 37.4895  255 255 255
-4.7264 -7.44876 37.7022  255 255 255
-2.75821 -7.732 37.8246  255 255 255
-12.647 -3.2899 30.6633  255 255 255
-24.5927 45.7683 -77.6521  255 255 255
-24.5934 45.7673 -77.6487  255 255 255
-4.3382 -7.43137 37.2782  255 255 255
-4.71363 -7.70483 37.9909  255 255 255
-5.19749 -7.6741 37.8202  255 255 255
-24.3853 45.2127 -77.2075  255 255 255
56.4003 -0.857219 2.12277  255 255 255
-8.88574 -6.44321 35.7028  255 255 255
-8.93658 -6.48966 35.8387  255 255 255
-26.0789 44.9655 -76.7066  255 255 255
56.2864 -0.918863 1.73796  255 255 255
61.9021 -7.32207 14.6132  255 255 255
55.5645 -0.48089 0.852063  255 255 255
-11.9576 -4.91296 32.6965  255 255 255
-54.8471 38.891 -54.1093  255 255 255
-38.3901 41.8909 -66.6673  255 255 255
-15.0066 -1.78356 26.3361  255 255 255
-39.0843 41.717 -66.0828  255 255 255
-6.13129 -8.04293 37.758  255 255 255
-59.5667 37.9688 -50.9491  255 255 255
-3.85897 -8.81382 38.6971  255 255 255
59.1875 -4.59455 7.9787  255 255 255
-52.8737 38.8109 -55.5629  255 255 255
-4.87681 -8.64928 38.2947  255 255 255
-55.7827 38.2831 -53.5401  255 255 255
-55.8018 38.5594 -54.0453  255 255 255
-4.58093 -8.95495 38.6104  255 255 255
-22.802 44.5246 -80.3428  255 255 255
-12.1849 -5.54744 33.0571  255 255 255
53.5029 1.34274 -4.94681  255 255 255
54.3011 0.393614 -3.24529  255 255 255
62.6566 -8.67086 15.3364  255 255 255
62.6564 -8.67059 15.3364  255 255 255
3.14818 -10.0144 38.2766  255 255 255
-14.7343 -3.41191 28.7772  255 255 255
55.5159 -0.959926 -0.859042  255 255 255
53.9313 0.681953 -4.5026  255 255 255
58.6068 -4.61091 6.32255  255 255 255
58.5973 -4.61787 6.33484  255 255 255
23.4313 -18.3937 50.8062  255 255 255
-52.6738 38.2473 -56.2686  255 255 255
-7.38402 -8.5476 37.7725  255 255 255
56.5553 -2.22094 1.12624  255 255 255
58.8225 -4.88226 6.55775  255 255 255
58.8448 -4.89292 6.57365  255 255 255
-60.0196 37.0094 -51.2003  255 255 255
-60.5654 36.8608 -50.7628  255 255 255
21.5188 40.7925 -89.0693  255 255 255
52.077 2.37179 -8.46997  255 255 255
59.3244 -5.51408 7.46988  255 255 255
-13.0464 -5.84234 32.5884  255 255 255
-12.879 -6.02741 33.0196  255 255 255
-15.3709 -3.75378 28.4225  255 255 255
-12.5722 -6.62851 33.5481  255 255 255
-4.21668 -10.2555 39.0865  255 255 255
55.8626 -2.17765 -1.23269  255 255 255
63.6116 -10.6419 16.1483  255 255 255
-14.9761 -4.90749 30.0083  255 255 255
-31.1503 41.3707 -74.9953  255 255 255
-25.0977 42.3228 -79.7413  255 255 255
62.5504 -9.70008 13.6463  255 255 255
-6.24449 -10.0677 38.6098  255 255 255
-6.7748 -9.93449 38.4048  255 255 255
-31.6834 40.8718 -75.1866  255 255 255
-5.17906 -10.4849 39.017  255 255 255
4.19717 -11.5626 38.2381  255 255 255
59.0199 -6.36078 6.02289  255 255 255
58.5072 -5.39228 3.78179  255 255 255
58.506 -5.39231 3.78308  255 255 255
-60.0821 35.5652 -52.1821  255 255 255
-57.0047 35.9758 -54.3296  255 255 255
61.4004 -8.86546 10.8336  255 255 255
61.4005 -8.86545 10.8335  255 255 255
53.5678 -0.447861 -6.84756  255 255 255
-8.56539 -9.71493 37.842  255 255 255
-8.52275 -9.67791 37.7186  255 255 255
51.9152 1.18195 -10.4264  255 255 255
53.1609 -0.0469617 -8.02967  255 255 255
-9.68107 -9.36937 37.1026  255 255 255
2.42147 -12.0567 39.0863  255 255 255
51.8588 1.20617 -10.8922  255 255 255
55.459 -8.94198 12.2522  255 255 255
60.7867 -8.53478 9.08649  255 255 255
58.9009 -6.84908 5.1782  255 255 255
-51.3874 36.3337 -59.7711  255 255 255
-38.0512 38.9982 -71.3768  255 255 255
61.3067 -9.61897 10.6277  255 255 255
-29.9912 40.1742 -77.4747  255 255 255
-29.9156 40.5026 -78.5132  255 255 255
-3.77664 -11.6262 39.5261  255 255 255
-45.4749 37.9102 -66.5385  255 255 255
59.4654 -7.73148 6.31852  255 255 255
60.6955 -9.24931 9.57026  255 255 255
60.5751 -9.04465 8.44932  255 255 255
62.0639 -10.468 11.3738  255 255 255
-64.1218 33.8626 -50.3595  255 255 255
-15.4751 -6.5861 30.8433  255 255 255
-61.9564 33.8383 -51.0374  255 255 255
60.5916 -9.02682 7.96818  255 255 255
-59.1282 34.5022 -54.2078  255 255 255
54.1014 -2.19794 -6.8436  255 255 255
54.1016 -2.19798 -6.84393  255 255 255
-55.9647 34.6306 -56.6669  255 255 255
55.2063 -3.43458 -4.30631  255 255 255
-7.07163 -11.4731 38.7974  255 255 255
7.61376 -13.0487 37.1116  255 255 255
-3.4612 -12.5025 39.7914  255 255 255
54.506 -2.80565 -6.66975  255 255 255
-55.19 34.7987 -58.3785  255 255 255
-55.1721 34.703 -58.251  255 255 255
52.7643 -1.28584 -10.0163  255 255 255
-7.28884 -11.6347 38.7392  255 255 255
-60.4099 34.0264 -54.534  255 255 255
-32.0805 38.3042 -77.165  255 255 255
11.3443 31.1715 -76.2721  255 255 255
11.228 31.4243 -76.5188  255 255 255
-7.61277 -11.7805 38.8946  255 255 255
58.5797 -7.56792 2.59926  255 255 255
-50.335 34.6854 -61.2327  255 255 255
-50.335 34.6856 -61.2333  255 255 255
-28.8989 38.9284 -80.8544  255 255 255
8.97985 31.4197 -77.0688  255 255 255
-1.8099 -13.2989 39.8359  255 255 255
-1.80975 -13.2992 39.8359  255 255 255
24.7077 -20.1422 46.4807  255 255 255
-13.7502 -9.48753 34.192  255 255 255
-16.5276 -7.53711 30.1716  255 255 255
-55.1683 33.6354 -59.4457  255 255 255
-55.1683 33.6358 -59.4471  255 255 255
53.8224 -3.15013 -9.42913  255 255 255
-54.5167 33.6782 -59.9159  255 255 255
-11.077 -11.2451 37.0551  255 255 255
